ncols         157
nrows         207
xllcorner     42854.265930178
yllcorner     227397.95507813
cellsize      30
NODATA_value  -9999
-9999 27 27 26 26 26 25 25 25 25 25 25 25 25 25 25 25 25 24 24 24 24 24 24 24 24 24 24 25 26 26 26 26 25 25 25 25 25 25 25 25 25 25 26 26 27 28 29 29 29 29 29 29 29 29 29 29 30 30 31 32 33 34 34 -9999 -9999 -9999 -9999 -9999 -9999 -9999 -9999 -9999 -9999 -9999 -9999 -9999 -9999 -9999 -9999 -9999 -9999 -9999 -9999 -9999 -9999 -9999 -9999 -9999 -9999 -9999 -9999 -9999 -9999 -9999 -9999 -9999 -9999 -9999 -9999 -9999 -9999 -9999 -9999 -9999 -9999 -9999 -9999 -9999 -9999 -9999 -9999 -9999 -9999 -9999 -9999 -9999 -9999 -9999 -9999 -9999 -9999 -9999 -9999 -9999 -9999 -9999 -9999 -9999 -9999 -9999 -9999 -9999 -9999 -9999 -9999 -9999 -9999 -9999 -9999 -9999 -9999 -9999 -9999 -9999 -9999 -9999 -9999 -9999 -9999 -9999 -9999 -9999 -9999 -9999 -9999 -9999 
-9999 26 27 26 26 26 25 24 24 24 24 24 24 24 24 24 24 24 23 23 23 23 23 23 23 23 23 24 24 25 25 24 24 23 23 23 23 24 23 22 23 24 24 25 25 26 28 29 29 29 29 29 29 29 29 29 29 30 30 30 30 30 32 31 34 34 35 35 38 48 52 53 51 48 47 45 41 40 37 35 35 35 35 34 34 33 33 32 33 33 36 37 38 38 37 37 37 33 30 30 30 30 29 29 29 29 29 29 29 29 29 29 29 29 28 28 28 28 28 28 28 28 27 27 27 27 27 27 27 27 27 27 27 27 27 27 27 26 24 23 22 22 22 22 22 21 21 22 22 23 23 23 23 23 24 25 -9999 
-9999 26 27 26 26 25 25 23 23 23 23 23 23 23 23 23 23 23 22 22 22 22 22 22 22 22 22 24 24 24 23 23 22 22 22 22 23 24 22 22 23 24 24 25 25 26 28 29 29 29 29 29 29 29 29 29 29 30 30 30 30 30 32 32 33 34 35 36 37 49 59 60 62 58 51 49 44 41 40 39 36 35 34 34 34 33 33 33 33 33 36 37 39 40 39 39 38 34 30 30 30 30 30 30 30 30 30 29 29 29 29 29 29 29 29 29 29 29 29 28 28 28 28 28 28 28 28 28 28 28 28 27 27 27 27 27 27 26 24 23 23 22 23 22 22 22 23 23 22 23 23 23 23 23 24 27 -9999 
-9999 26 26 26 25 25 25 23 23 23 23 23 23 23 23 23 23 22 22 22 22 22 22 22 22 22 22 22 22 22 22 21 21 21 22 23 23 24 22 23 23 24 25 25 26 26 28 29 29 29 28 27 28 28 28 28 29 30 29 29 30 31 31 32 32 32 36 37 38 43 59 61 63 61 56 51 49 41 39 39 39 37 35 34 34 34 33 33 33 33 35 37 38 40 40 38 37 34 31 31 30 30 30 30 30 30 30 30 30 30 30 30 29 29 29 29 29 29 29 29 29 29 29 29 28 28 28 28 28 28 28 28 28 28 28 28 27 27 25 25 25 25 25 25 25 25 25 25 24 25 25 25 26 26 26 27 -9999 
-9999 26 26 26 25 26 26 25 24 24 23 23 23 23 23 22 22 22 22 22 22 22 22 22 22 22 21 21 21 21 21 21 21 22 22 23 24 24 23 23 24 24 25 26 26 27 27 27 27 27 28 28 28 28 28 29 29 29 30 30 30 30 31 31 31 32 36 38 38 41 47 57 58 60 60 57 53 40 38 39 39 39 39 36 34 34 33 33 33 34 35 36 38 39 39 38 37 35 31 31 31 31 31 31 31 31 30 30 30 30 30 30 30 30 30 30 30 30 29 29 29 29 29 29 29 29 29 29 29 29 28 28 28 28 28 28 28 28 27 27 26 28 28 29 28 27 26 29 32 30 27 25 25 25 26 26 -9999 
-9999 26 26 25 25 27 27 26 24 23 23 23 23 23 22 22 22 22 22 21 21 21 21 21 21 21 20 20 19 19 19 21 21 22 23 23 24 25 23 23 24 24 25 26 27 27 27 27 28 28 28 28 28 29 29 29 29 30 31 31 30 31 31 30 30 32 37 39 40 40 41 44 52 57 62 63 55 40 38 38 38 38 38 37 35 34 34 33 33 34 35 36 37 38 38 37 36 35 32 32 31 31 31 31 31 31 31 31 31 31 31 30 30 30 30 30 30 30 30 30 30 30 29 29 29 29 29 29 29 29 29 29 29 29 29 28 28 28 30 31 31 31 32 33 34 36 37 40 40 38 36 32 33 26 26 26 -9999 
-9999 26 25 25 25 29 29 28 25 23 23 23 23 22 22 22 22 22 22 21 21 21 21 21 21 20 19 19 19 19 20 21 22 22 23 23 24 25 24 24 25 25 26 26 27 27 27 28 28 28 28 29 29 29 27 29 29 30 31 31 31 31 31 31 30 33 39 41 41 41 42 43 43 52 64 66 56 39 37 38 38 38 38 38 37 36 36 35 34 34 36 35 37 38 38 37 35 34 33 32 32 32 32 32 31 31 31 31 31 31 31 31 31 31 31 31 31 30 30 30 30 30 30 30 30 30 30 30 30 29 29 29 29 29 29 29 29 29 31 32 32 31 31 30 31 33 35 38 38 30 30 34 38 36 28 25 -9999 
-9999 26 25 26 27 30 30 28 27 23 23 23 22 22 22 22 22 22 21 21 21 21 21 20 20 19 19 19 19 19 20 21 22 22 23 24 24 25 25 25 26 26 27 27 27 28 28 28 28 29 29 29 28 28 27 28 28 28 31 31 31 31 31 31 31 35 41 41 41 41 41 43 43 43 60 63 56 39 37 37 38 39 39 39 38 38 37 36 35 34 35 36 36 37 37 36 35 34 33 32 32 32 32 32 32 32 32 32 32 32 31 31 31 31 31 31 31 31 31 31 31 31 30 30 30 30 30 30 30 30 30 30 30 29 29 29 29 30 31 32 32 32 31 31 31 31 31 33 38 39 32 29 36 33 31 25 -9999 
-9999 25 29 30 31 30 28 27 26 25 23 23 22 22 22 22 22 21 21 21 21 21 20 20 19 19 19 19 19 20 21 21 22 23 23 24 25 25 26 27 27 28 28 29 31 31 30 31 30 29 29 29 29 28 28 27 28 28 29 33 35 36 35 35 33 34 42 41 42 43 43 43 43 43 44 57 55 39 36 37 37 38 39 39 40 39 38 37 36 35 34 36 36 36 35 34 33 35 34 33 33 33 33 32 32 32 32 32 32 32 32 32 32 32 32 31 31 31 31 31 31 31 31 31 31 31 31 30 30 30 30 30 30 30 30 30 30 31 34 37 36 35 33 32 31 31 30 30 31 37 38 35 35 31 28 27 -9999 
-9999 24 28 30 29 28 28 27 26 25 23 22 22 22 22 22 21 21 21 21 21 21 20 20 19 19 19 19 19 20 21 22 22 23 24 24 25 26 28 28 29 29 30 30 31 32 32 31 31 30 30 29 29 28 28 27 28 28 27 31 37 39 39 39 34 33 42 44 43 43 43 42 43 43 39 37 37 36 35 36 36 37 38 38 40 41 39 38 37 36 36 35 36 36 34 34 34 33 34 33 33 33 33 33 33 33 33 33 32 32 32 32 32 32 32 32 32 32 32 32 32 31 31 31 31 31 31 31 31 31 31 31 30 30 30 30 30 31 35 39 40 40 40 39 37 35 31 28 26 34 37 38 37 31 29 28 -9999 
-9999 24 25 30 29 28 27 27 26 25 22 22 22 22 22 21 21 21 21 21 21 20 20 19 19 19 19 19 20 21 21 22 23 23 24 25 25 26 29 29 30 30 31 32 33 32 32 31 31 30 30 29 29 28 28 27 28 28 29 36 39 34 42 39 34 35 41 44 43 43 43 42 43 44 39 35 34 33 33 33 35 36 37 37 40 40 40 39 38 37 36 36 36 36 34 34 34 34 34 34 34 34 33 33 33 33 33 33 33 33 33 33 33 33 32 32 32 32 32 32 32 32 32 32 32 32 31 31 31 31 31 31 31 31 31 31 31 32 36 40 40 40 40 39 39 38 36 34 31 28 34 36 36 34 29 28 -9999 
-9999 24 24 29 29 28 27 26 25 25 22 22 22 22 21 21 21 21 21 21 20 20 19 19 19 19 19 19 20 21 21 22 23 23 24 25 25 26 30 31 31 32 32 32 33 32 32 31 31 30 30 29 29 28 28 27 28 28 29 41 44 40 41 36 32 32 42 43 43 43 43 42 43 43 35 31 31 30 30 31 33 35 36 39 40 40 37 37 38 38 36 36 36 36 35 34 34 34 34 34 34 34 34 34 34 34 34 33 33 33 33 33 33 33 33 33 33 33 33 32 32 32 32 32 32 32 32 32 32 32 31 31 31 31 31 31 31 32 36 40 39 39 39 39 39 38 38 38 36 32 29 34 33 33 28 26 -9999 
-9999 24 24 28 28 27 27 26 25 24 23 22 22 21 21 21 21 21 21 20 20 20 19 19 19 19 19 20 20 21 22 22 23 24 24 25 26 26 31 32 32 31 31 32 33 33 32 32 31 31 30 30 29 29 28 28 27 28 30 37 40 40 39 35 32 30 41 42 43 43 43 43 43 42 34 31 29 28 29 30 34 36 39 39 39 39 36 36 36 36 36 36 35 36 35 35 35 35 35 35 34 34 34 34 34 34 34 34 34 34 34 34 33 33 33 33 33 33 33 33 33 33 33 33 33 32 32 32 32 32 32 32 32 32 32 32 31 32 36 40 39 38 38 38 37 36 36 36 37 34 29 31 33 33 30 25 -9999 
-9999 24 23 25 28 27 26 25 25 24 23 22 21 21 21 21 21 21 20 20 20 19 19 19 19 19 19 20 21 21 22 23 23 24 25 25 26 27 32 31 31 31 31 32 33 33 32 32 31 31 30 30 29 29 28 28 27 27 31 35 38 38 38 36 32 28 38 41 42 43 43 43 43 41 36 32 30 29 30 30 32 35 37 37 39 33 35 35 35 35 35 35 35 36 35 35 35 35 35 35 35 35 35 35 35 35 34 34 34 34 34 34 34 34 34 34 34 34 33 33 33 33 33 33 33 33 33 33 33 32 32 32 32 32 32 32 32 33 36 39 38 37 37 36 35 35 35 34 33 33 30 30 31 31 31 28 -9999 
-9999 25 25 24 26 27 26 25 24 23 23 21 21 21 21 21 21 20 20 20 19 19 19 19 18 19 20 20 21 22 22 23 24 24 25 26 26 27 31 31 31 31 31 32 32 33 32 32 31 31 30 30 29 29 28 28 27 27 29 34 35 36 37 36 32 28 34 41 42 42 42 42 42 38 36 34 32 30 30 31 31 33 35 34 31 31 34 35 35 34 34 34 37 36 36 36 36 36 36 35 35 35 35 35 35 35 35 35 35 35 35 34 34 34 34 34 34 34 34 34 34 34 34 33 33 33 33 33 33 33 33 33 33 33 33 32 32 33 35 37 36 36 35 35 34 34 33 32 32 30 28 29 30 30 31 31 -9999 
-9999 24 24 24 25 24 24 24 24 23 22 21 21 21 21 21 20 20 20 20 19 19 19 19 19 19 20 20 21 22 22 23 24 25 25 26 27 27 31 31 31 31 32 32 32 33 32 32 31 31 30 30 29 29 28 28 27 27 26 30 31 32 33 33 30 26 33 39 40 40 41 41 41 38 36 34 31 32 32 33 30 32 33 32 31 31 33 34 34 34 34 34 37 36 36 36 36 36 36 36 36 36 36 36 36 35 35 35 35 35 35 35 35 35 35 35 35 34 34 34 34 34 34 34 34 34 34 34 34 33 33 33 33 33 33 33 33 34 35 37 36 34 34 34 33 33 32 32 31 31 29 31 31 30 30 31 -9999 
-9999 25 24 23 24 24 24 23 23 22 22 21 21 21 21 20 20 20 20 19 19 19 19 19 19 19 20 21 21 22 23 23 24 25 25 26 27 27 31 31 31 31 32 32 32 33 32 32 31 31 30 30 29 29 28 28 27 27 25 25 27 28 28 28 26 25 30 38 39 40 40 40 40 38 36 34 31 32 32 31 29 30 32 32 31 31 32 33 33 34 34 36 39 38 38 37 37 37 36 36 36 36 36 36 36 36 36 36 36 36 35 35 35 35 35 35 35 35 35 35 35 35 34 34 34 34 34 34 34 34 34 34 34 34 33 33 33 34 36 37 35 34 33 32 32 33 33 33 31 32 30 31 32 30 30 32 -9999 
-9999 24 24 23 23 24 23 23 23 22 22 21 21 21 20 20 20 20 19 19 19 19 19 19 19 20 20 21 22 22 23 24 24 25 26 26 27 28 31 31 31 31 32 32 32 32 33 32 32 31 31 30 30 29 29 28 28 27 25 25 25 24 24 25 25 25 28 37 38 39 40 40 38 38 36 34 31 31 30 29 29 30 31 31 30 31 32 32 33 34 36 38 38 38 38 37 37 37 37 37 37 37 37 36 36 36 36 36 36 36 36 36 36 36 36 35 35 35 35 35 35 35 35 35 35 35 35 34 34 34 34 34 34 34 34 34 34 35 37 39 36 33 33 33 32 33 32 31 32 32 30 31 33 32 31 32 -9999 
-9999 24 23 22 22 24 23 23 22 22 22 21 21 20 20 20 20 19 19 19 19 19 19 19 19 20 21 21 22 23 23 24 25 25 26 27 27 28 31 31 31 31 31 32 32 32 33 32 32 31 31 30 30 29 29 28 28 27 25 25 24 24 25 28 28 27 28 34 34 37 38 37 36 36 35 34 35 36 33 31 30 31 30 30 31 31 33 33 34 36 38 39 38 38 37 37 37 37 37 37 37 37 37 37 37 37 37 37 37 36 36 36 36 36 36 36 36 36 36 36 35 35 35 35 35 35 35 35 35 35 35 35 34 34 34 34 34 36 41 47 43 35 33 33 32 31 30 30 30 32 31 33 33 33 31 31 -9999 
-9999 23 23 22 22 23 23 23 22 22 21 21 20 20 20 20 20 19 19 19 19 19 19 19 19 20 21 22 22 23 24 24 25 26 26 27 28 28 31 31 31 31 35 35 32 32 33 32 32 31 31 30 30 29 29 28 28 27 27 25 29 32 32 33 34 34 30 30 31 33 35 35 34 34 33 34 40 45 44 40 36 31 30 30 30 32 32 34 37 40 41 41 38 37 36 35 38 38 38 38 38 38 37 35 33 36 37 37 37 37 37 37 37 37 36 36 36 36 36 36 36 36 36 36 36 36 35 35 35 35 35 35 35 35 35 35 35 36 42 49 47 38 33 33 32 30 29 28 28 32 33 33 33 34 32 32 -9999 
-9999 23 23 21 21 23 23 22 22 22 21 21 20 20 20 20 19 19 19 19 19 19 19 19 19 20 21 22 22 23 24 24 25 26 26 27 28 28 31 31 32 39 38 35 32 32 32 32 32 31 31 30 30 29 29 28 28 27 27 30 34 36 36 36 35 35 34 31 30 31 33 33 32 30 30 33 33 43 46 41 39 32 30 30 30 31 33 37 41 46 48 43 39 36 35 34 34 35 33 33 33 33 30 30 30 31 37 37 37 37 37 37 37 37 37 37 37 37 37 37 36 36 36 36 36 36 36 36 36 36 36 35 35 35 35 35 35 36 40 45 41 35 33 33 32 29 30 26 26 29 33 33 34 34 34 33 -9999 
-9999 23 22 21 21 23 23 22 22 21 21 20 20 20 19 20 19 19 19 19 19 19 19 19 19 21 21 22 23 23 24 25 25 26 27 27 28 29 31 33 39 38 37 35 32 32 32 32 32 31 31 30 30 29 29 28 28 27 27 30 35 36 36 36 35 35 34 33 33 32 32 31 30 30 29 33 32 37 42 38 36 31 30 30 31 32 34 40 48 57 54 47 40 37 35 34 34 34 32 32 32 32 33 33 34 33 32 38 38 38 38 38 38 37 37 37 37 37 37 37 37 37 37 37 37 36 36 36 36 36 36 36 36 36 36 36 36 36 38 40 38 33 33 32 32 30 29 27 26 30 32 34 34 34 35 33 -9999 
-9999 22 22 20 20 23 22 22 21 21 21 20 20 19 19 20 20 19 19 19 19 19 19 19 19 21 22 22 23 24 24 25 26 26 27 28 28 29 32 39 37 36 35 35 32 32 32 32 32 32 31 31 30 30 29 29 28 28 27 28 33 35 36 36 35 35 34 34 33 32 32 31 31 30 29 31 32 32 35 33 30 29 28 30 32 34 41 46 58 62 60 50 43 38 35 34 34 34 32 33 34 36 37 37 38 37 35 37 38 38 38 38 38 38 38 38 38 37 37 37 37 37 37 37 37 37 37 37 37 37 36 36 36 36 36 36 36 36 37 36 35 33 33 32 32 29 27 26 26 32 32 32 32 33 36 32 -9999 
-9999 21 20 20 20 22 22 22 21 21 20 20 20 19 19 20 20 19 19 19 19 19 19 19 19 21 22 23 23 24 25 25 26 27 27 28 29 29 34 38 36 35 34 34 33 32 32 32 32 32 31 31 30 30 29 29 28 28 27 28 30 35 36 36 36 35 35 34 33 33 32 31 31 30 30 29 32 31 31 28 27 27 28 32 33 46 51 53 55 58 58 50 42 39 34 34 34 34 33 36 37 39 40 39 39 39 37 38 39 39 39 38 38 38 38 38 38 38 38 38 38 38 38 37 37 37 37 37 37 37 37 37 37 37 37 36 36 36 36 34 33 32 33 33 33 31 29 29 31 33 32 32 32 32 36 32 -9999 
-9999 20 20 20 19 22 22 21 21 21 20 20 19 20 19 20 20 20 19 19 19 19 19 19 19 22 22 23 24 24 25 26 26 27 28 28 29 29 34 37 36 34 33 33 32 32 32 32 31 31 31 31 30 30 29 29 28 28 27 27 33 35 35 37 36 35 35 34 34 33 32 32 31 31 30 29 31 31 31 29 27 29 31 33 37 53 54 53 50 50 49 48 39 34 34 34 34 35 36 38 39 42 43 40 39 39 39 39 39 39 39 39 39 39 39 39 39 38 38 38 38 38 38 38 38 38 38 38 37 37 37 37 37 37 37 37 37 36 36 34 34 33 34 33 33 32 32 32 32 32 31 31 32 32 34 34 -9999 
-9999 20 20 19 19 21 22 21 21 21 20 20 20 19 19 20 20 20 19 19 19 19 19 19 20 22 22 23 24 24 25 26 26 27 28 28 29 30 34 36 35 34 33 33 32 32 32 31 31 31 30 30 30 29 29 29 28 28 27 27 31 34 35 36 36 35 35 35 35 34 33 32 32 31 30 30 30 30 30 28 29 29 31 36 40 45 46 50 47 45 43 40 37 34 34 34 35 37 38 39 41 41 41 40 39 39 39 40 40 40 39 39 39 39 39 39 39 39 39 39 39 39 38 38 38 38 38 38 38 38 38 38 38 38 37 37 37 37 35 35 34 34 34 34 34 32 33 34 34 34 33 31 31 31 32 33 -9999 
-9999 19 19 20 19 21 21 21 21 20 20 20 20 20 20 20 20 20 20 20 20 20 20 20 21 22 23 23 24 24 25 26 26 27 27 28 30 31 34 35 35 35 34 34 33 33 32 30 30 29 29 29 29 29 29 29 28 28 28 29 31 33 34 34 34 35 36 36 36 36 36 33 32 31 30 29 29 29 27 26 26 27 30 34 39 41 43 44 43 41 39 36 33 33 34 36 36 38 38 38 39 39 39 39 39 39 39 39 39 39 39 38 38 38 38 38 37 37 37 38 38 38 38 38 38 37 37 37 37 37 37 37 37 37 37 37 37 37 36 35 34 34 35 35 35 35 36 37 37 37 35 34 33 32 32 31 -9999 
-9999 19 19 19 19 20 20 20 20 20 20 20 20 20 20 20 20 20 20 20 20 20 21 21 22 23 23 24 25 25 26 26 26 26 27 29 30 32 34 35 35 35 35 34 34 34 32 28 27 27 28 28 28 28 28 28 28 29 29 29 30 32 32 32 33 34 36 38 38 38 37 35 33 31 29 28 28 28 25 24 24 25 28 33 37 39 39 39 38 37 35 31 29 32 34 37 38 38 38 38 38 38 38 38 39 39 39 38 38 38 38 38 38 37 37 37 36 36 36 37 37 38 37 37 37 37 37 37 37 36 36 36 36 36 36 36 35 35 35 34 34 34 36 36 36 36 38 40 40 39 37 35 34 33 31 29 -9999 
-9999 18 18 20 19 20 20 20 20 20 20 20 20 20 20 20 20 20 20 20 21 21 22 22 23 23 24 24 25 25 26 26 26 26 26 29 31 32 35 36 36 35 35 35 35 35 33 25 25 26 26 27 27 27 28 28 28 29 29 30 30 30 31 31 32 32 37 39 40 39 38 35 33 31 30 28 28 28 27 23 23 24 27 31 35 38 38 37 36 34 31 28 28 31 34 39 39 38 37 37 36 36 37 37 38 38 38 38 37 36 36 36 36 36 35 36 34 35 35 35 37 37 37 37 37 36 36 36 36 36 36 36 35 35 35 35 35 35 34 34 34 34 36 37 36 37 40 43 43 42 39 38 36 34 32 29 -9999 
-9999 18 18 19 19 19 19 19 19 19 19 19 19 20 20 20 20 20 20 20 21 21 22 22 23 24 24 25 25 26 26 27 27 28 28 30 31 32 36 36 36 35 35 35 35 34 32 25 25 25 26 26 27 27 27 28 28 28 29 29 30 30 30 31 31 32 36 37 38 38 37 34 33 31 29 28 28 28 27 25 24 24 25 29 33 36 37 36 35 33 30 28 27 30 34 38 37 37 36 35 35 35 35 36 36 36 36 36 37 37 37 35 35 35 35 35 34 34 35 35 37 37 37 37 36 36 36 36 36 36 36 35 35 35 35 35 35 34 34 34 34 34 36 37 38 38 41 44 46 45 43 41 38 36 33 31 -9999 
-9999 17 18 19 19 19 19 19 19 19 19 19 19 19 19 19 19 19 21 23 22 23 24 24 25 25 26 26 27 27 29 29 29 29 30 32 32 33 35 35 35 35 34 34 35 34 32 25 25 25 25 26 26 27 27 27 28 28 28 29 29 30 30 30 31 31 34 36 36 36 35 33 32 29 28 28 27 27 27 27 24 24 24 27 31 34 35 35 34 33 29 27 27 30 34 37 36 35 35 34 34 34 35 35 35 34 34 34 34 34 35 35 35 34 34 34 34 34 34 35 37 37 37 37 36 36 36 36 36 36 35 35 35 35 35 35 34 34 34 34 34 34 36 38 39 41 43 46 49 49 47 44 40 36 35 35 -9999 
-9999 16 19 19 19 19 19 19 19 19 19 19 19 19 19 20 21 21 25 26 26 25 25 25 26 27 27 28 29 30 30 30 30 31 31 34 34 34 34 34 34 34 34 33 34 34 32 27 24 25 25 25 26 26 27 27 27 28 28 29 29 29 30 30 31 31 33 34 34 34 34 31 29 28 27 27 27 27 27 27 26 24 24 26 28 32 33 34 34 32 29 27 27 30 34 36 35 34 33 33 32 33 34 34 34 33 33 33 33 34 34 34 34 34 34 33 33 34 34 34 37 37 37 36 36 36 36 36 36 35 35 35 35 35 35 35 34 34 34 34 34 34 37 38 40 42 46 49 50 51 49 45 39 36 35 36 -9999 
-9999 17 19 19 19 19 19 19 19 19 19 19 19 19 23 36 44 47 48 46 48 46 32 27 27 28 28 31 32 33 37 39 34 32 32 36 35 34 34 34 34 34 33 33 33 32 30 27 24 24 25 25 25 26 26 27 27 27 28 28 29 29 29 30 30 31 31 32 33 32 31 28 27 27 27 27 27 27 26 26 26 26 26 26 25 30 32 33 33 31 28 27 26 30 34 35 34 33 32 31 31 31 32 32 33 32 32 33 33 33 33 33 33 33 33 33 33 33 34 34 37 37 36 36 36 36 36 36 35 35 35 35 35 35 35 34 34 34 34 34 34 33 36 38 41 44 49 52 53 53 50 45 39 37 37 39 -9999 
-9999 18 18 18 18 18 18 18 18 18 18 18 19 23 35 49 53 48 47 46 45 44 36 29 28 33 41 42 37 39 47 52 56 56 46 43 41 38 36 34 33 33 33 32 30 28 26 24 23 24 24 25 25 25 26 26 27 27 27 28 28 29 29 29 30 30 31 30 29 28 27 27 27 27 27 27 26 26 26 26 26 26 25 25 25 28 30 32 32 30 27 26 26 30 34 34 33 32 31 30 30 30 31 31 31 32 32 32 32 32 32 32 32 32 32 32 33 33 33 34 36 36 36 36 36 36 36 36 35 35 35 35 35 35 34 34 34 34 34 34 33 33 36 38 42 50 55 58 59 56 52 46 40 37 39 38 -9999 
-9999 18 18 18 18 18 18 18 18 18 18 19 23 27 41 51 56 50 44 42 39 34 29 31 37 44 48 48 46 57 62 64 61 61 57 47 47 44 39 36 34 32 31 29 27 25 23 22 23 24 24 24 25 25 25 26 26 27 27 28 28 28 29 29 29 30 30 28 27 27 27 27 27 27 26 26 26 26 26 26 25 25 25 25 25 25 28 30 30 28 26 26 26 29 33 33 32 30 29 28 28 27 27 28 27 27 28 28 27 27 28 28 28 29 30 31 32 33 33 33 35 36 36 36 36 36 36 35 35 35 35 35 35 34 34 34 34 34 34 34 33 36 38 41 44 53 57 60 58 53 50 46 40 39 38 37 -9999 
-9999 18 18 18 18 18 18 18 18 18 18 19 25 29 36 44 48 42 36 36 28 28 34 40 52 58 62 63 73 77 71 68 66 67 62 55 48 47 43 36 34 34 32 29 27 25 23 22 23 23 24 24 24 25 25 26 26 26 27 27 27 28 28 29 29 30 30 27 27 27 27 27 26 26 26 26 26 26 25 25 25 25 25 25 24 24 26 27 27 26 26 26 26 28 31 32 31 29 28 27 28 26 27 27 27 27 27 27 27 28 28 28 28 29 29 31 32 32 33 33 33 34 32 33 35 36 35 35 35 35 35 35 34 34 34 34 34 34 34 33 34 39 43 45 52 55 58 60 55 54 50 47 41 40 38 38 -9999 
-9999 17 17 18 18 18 18 18 18 18 19 19 23 26 29 32 34 33 30 27 29 38 47 55 62 73 76 75 83 90 87 84 77 77 70 66 60 53 48 43 38 38 35 31 29 26 24 22 22 23 23 24 24 24 25 25 26 26 26 27 27 28 28 28 29 29 30 27 27 27 26 25 26 26 26 26 25 25 25 25 25 25 24 24 24 24 25 26 26 25 25 25 26 27 29 30 29 27 26 26 26 26 27 27 27 27 27 27 28 28 28 28 29 29 29 31 31 32 32 33 33 33 32 32 33 33 33 34 35 35 35 35 34 34 34 34 34 34 33 35 37 44 53 54 57 58 59 58 54 52 50 47 44 40 38 39 -9999 
-9999 17 17 17 17 17 17 17 19 19 19 19 20 23 26 28 27 26 26 28 35 43 50 53 60 77 91 92 96 104 103 103 95 93 84 77 68 68 62 49 44 40 37 33 30 28 26 24 23 23 23 23 24 24 24 25 25 26 26 26 27 27 28 28 28 29 29 27 26 26 26 26 26 26 25 25 25 25 25 25 24 24 24 24 24 24 23 24 24 24 24 25 25 25 27 27 27 26 25 25 25 26 26 26 27 27 27 28 28 28 29 29 29 29 30 31 31 31 32 32 33 33 32 32 33 33 33 33 33 33 34 34 34 34 34 34 34 33 34 39 40 42 54 59 60 60 59 55 51 49 49 49 45 37 37 41 -9999 
-9999 17 17 17 17 17 17 17 18 19 19 20 20 20 22 24 24 24 25 28 36 38 40 40 44 62 92 103 108 117 122 119 115 107 101 92 84 81 71 64 47 43 39 36 33 29 26 25 24 23 22 22 23 24 24 24 25 25 26 26 26 27 27 28 28 28 29 26 26 26 26 26 25 25 25 25 25 25 24 24 24 24 24 24 23 23 23 23 23 23 24 24 24 24 25 25 25 25 25 25 25 25 26 26 26 27 28 28 28 29 29 29 29 30 31 31 31 31 31 32 32 32 32 32 32 33 33 33 33 33 33 34 34 34 34 34 34 35 37 40 44 44 48 59 61 61 58 52 48 44 42 42 38 33 36 41 -9999 
-9999 17 17 17 17 17 17 17 17 19 19 20 20 20 21 21 22 22 24 27 35 36 37 39 40 51 73 92 106 113 124 129 131 128 115 105 100 89 74 65 52 45 40 37 33 30 27 26 24 23 22 21 20 23 24 24 25 25 25 26 26 26 27 27 28 28 28 26 26 26 25 25 25 25 25 25 24 24 24 24 24 24 23 23 23 23 23 23 23 23 23 23 23 23 24 24 24 24 24 24 24 25 26 26 27 28 28 28 29 29 29 29 30 30 31 31 31 31 31 32 32 32 32 32 32 33 33 33 33 33 33 33 34 34 34 34 34 34 37 42 51 51 51 56 62 62 57 51 46 43 41 38 35 34 39 43 -9999 
-9999 17 17 17 17 17 17 17 17 19 19 19 19 20 20 20 21 22 22 24 31 32 33 35 40 47 56 62 87 98 108 120 128 136 131 124 111 94 78 67 58 45 41 37 33 30 28 27 25 23 22 21 20 20 23 24 24 24 25 25 26 26 27 27 27 28 28 26 25 25 25 25 25 25 24 24 24 24 24 24 23 23 23 23 23 23 22 22 22 22 23 23 23 23 23 23 23 23 23 24 24 25 27 27 27 28 28 29 29 29 29 30 30 30 31 31 31 31 31 31 32 32 32 32 32 32 33 33 33 33 33 33 34 34 34 34 34 34 37 41 53 56 57 60 64 63 57 51 47 46 45 41 36 38 43 47 -9999 
-9999 17 17 17 17 17 17 17 17 18 19 19 19 19 19 20 20 21 22 23 26 28 30 32 34 42 48 54 71 83 93 106 117 125 134 134 119 101 84 72 58 46 41 36 32 31 29 27 26 24 23 21 20 20 23 23 24 24 25 25 25 26 26 27 27 27 28 25 25 25 25 24 24 24 24 24 24 24 23 23 23 23 23 23 22 22 22 22 22 22 22 22 22 22 23 23 23 23 23 23 24 25 26 26 27 28 29 29 29 29 30 30 30 30 31 31 31 31 31 31 31 32 32 32 32 32 32 33 33 33 33 33 33 34 34 34 34 34 37 40 54 56 59 63 65 63 57 51 48 49 49 44 39 42 47 49 -9999 
-9999 17 17 17 17 17 17 17 17 17 18 18 18 19 19 19 20 20 21 21 22 25 28 30 33 35 43 56 63 71 81 92 103 113 123 132 126 107 89 74 54 43 37 34 31 30 28 26 25 24 23 21 20 20 21 23 23 24 24 25 25 25 26 26 27 27 27 25 25 25 24 24 24 24 24 24 23 23 23 23 23 23 22 22 22 22 22 22 21 21 22 22 22 22 22 22 22 22 22 22 22 24 27 27 27 29 29 29 29 30 30 30 30 31 31 31 31 32 31 31 31 32 32 32 32 32 32 32 33 33 33 33 33 33 34 34 34 35 37 40 54 53 52 56 60 60 55 52 50 50 49 45 41 44 48 49 -9999 
-9999 17 17 17 17 17 17 17 17 17 18 18 18 18 19 19 20 20 20 21 22 22 25 28 31 33 36 46 51 56 68 78 87 100 111 124 127 116 96 77 62 42 36 34 32 29 26 25 24 23 22 21 20 20 20 23 23 23 24 24 25 25 25 26 26 27 27 25 24 24 24 24 24 24 23 23 23 23 23 23 22 22 22 22 22 22 21 21 21 21 21 21 21 21 21 22 22 23 23 23 24 26 27 27 28 29 29 29 30 30 30 30 31 31 31 31 32 32 31 31 31 31 32 32 32 32 32 32 33 33 33 33 33 33 34 34 34 34 36 40 55 53 51 51 52 52 51 52 52 50 47 46 42 42 48 47 -9999 
-9999 16 16 17 17 17 17 17 17 17 17 18 18 18 19 19 19 18 20 21 21 22 22 25 28 30 33 39 42 48 57 68 78 87 99 110 119 117 104 84 70 50 37 34 33 30 27 25 24 23 22 21 20 20 19 21 23 23 23 24 24 25 25 25 26 26 26 24 24 24 24 24 23 23 23 23 23 23 23 22 22 22 22 22 22 21 21 21 21 21 21 21 22 22 23 23 23 24 24 25 25 26 28 28 28 29 29 30 30 30 30 31 31 31 31 32 32 32 31 31 31 31 31 32 32 32 32 32 32 33 33 33 33 33 33 34 34 35 36 38 50 50 51 53 56 54 53 53 54 51 48 43 41 41 43 42 -9999 
-9999 16 16 16 16 16 16 16 17 17 17 18 18 18 18 18 18 18 18 19 20 21 22 22 25 28 31 36 40 43 52 63 68 78 85 96 106 111 109 94 77 62 41 34 33 31 29 27 25 24 23 21 20 19 19 19 22 23 23 24 24 24 25 25 25 26 25 24 24 24 23 23 23 23 23 23 22 22 22 22 22 22 21 21 21 21 21 21 21 22 22 23 23 23 24 24 25 25 25 26 26 27 28 29 29 29 30 30 30 30 31 31 31 31 32 32 32 32 31 31 31 31 31 32 32 32 32 32 32 33 33 33 33 33 33 33 34 35 36 38 39 40 42 43 60 57 55 53 54 49 42 41 43 44 43 41 -9999 
-9999 15 15 15 15 16 16 16 17 17 17 18 18 18 18 18 18 18 18 18 18 20 22 22 23 24 26 33 39 42 46 52 59 66 70 79 90 100 104 102 84 69 52 37 32 32 30 28 26 24 23 22 20 18 18 19 22 22 23 23 24 24 24 25 25 26 25 24 23 23 23 23 23 23 23 22 22 22 22 23 22 21 21 21 21 21 21 22 22 23 23 24 24 25 25 26 26 26 27 27 27 28 29 29 29 30 30 30 30 31 31 31 31 32 32 32 33 33 31 31 31 31 31 31 32 32 32 32 32 32 33 33 33 33 33 33 34 35 36 37 39 40 41 43 52 58 56 56 54 49 46 45 46 46 44 41 -9999 
-9999 15 15 15 15 16 16 16 17 17 17 17 17 17 17 18 18 18 18 18 18 18 20 21 22 23 23 26 30 28 27 32 44 56 57 58 73 87 99 102 92 76 63 49 36 33 32 29 27 25 23 21 19 18 17 17 20 22 22 23 23 24 24 24 25 25 25 23 23 23 23 23 23 22 22 22 22 22 22 21 22 21 22 22 22 22 22 22 23 23 24 25 26 26 26 27 27 28 28 28 29 29 29 30 30 30 30 30 31 31 31 31 32 32 32 33 33 33 31 31 31 31 31 31 31 32 32 32 32 32 32 33 33 33 33 33 33 34 36 37 39 40 41 43 47 59 58 57 56 52 51 50 49 46 42 40 -9999 
-9999 16 17 16 16 16 16 17 17 17 18 16 17 17 17 18 18 18 18 18 18 18 18 19 20 21 22 22 23 25 26 26 27 41 45 50 56 72 90 98 97 87 75 62 50 38 34 30 27 25 23 20 19 17 16 16 17 22 22 22 23 23 24 24 24 25 24 23 23 23 23 22 22 22 22 22 22 21 21 21 21 22 22 22 22 22 22 22 23 23 24 26 27 27 27 28 28 29 29 30 30 30 30 30 30 30 31 31 31 31 32 32 32 32 33 33 33 33 30 31 31 31 31 31 31 32 32 32 32 32 32 33 33 33 33 33 33 34 36 37 38 40 41 42 44 51 55 55 55 52 51 49 47 44 40 40 -9999 
-9999 15 15 15 15 16 16 17 17 17 18 17 16 17 17 17 18 17 18 18 18 18 18 18 19 20 20 21 23 24 25 26 27 34 15 38 39 44 66 87 96 92 83 65 51 37 33 29 27 25 22 20 18 16 16 16 16 21 22 22 22 23 23 24 24 24 24 23 23 22 22 22 22 22 22 21 21 21 21 21 21 22 22 22 22 22 22 22 23 24 25 25 28 28 29 29 30 30 30 31 31 30 30 31 31 31 31 31 31 32 32 32 32 33 33 33 33 34 30 30 31 31 31 31 31 31 32 32 32 32 32 32 33 33 33 33 33 33 35 37 38 40 41 42 43 42 50 54 55 50 50 47 46 42 40 40 -9999 
-9999 15 15 15 15 16 16 17 17 17 17 18 18 18 18 18 19 19 19 18 18 18 18 18 19 19 19 20 20 22 22 23 27 29 31 38 41 46 52 71 86 88 83 59 46 30 29 27 25 23 21 20 19 16 16 16 16 19 21 22 22 23 23 23 24 24 23 22 22 22 22 22 22 21 21 21 21 21 21 20 21 21 22 22 22 22 22 23 24 25 25 25 27 29 30 30 31 31 32 32 32 31 31 31 31 31 31 31 32 32 32 32 33 33 33 33 34 34 30 30 30 31 31 31 31 31 31 32 32 32 32 32 32 33 33 33 33 33 35 37 38 39 41 42 43 41 47 51 53 47 45 44 43 40 40 40 -9999 
-9999 16 16 16 16 16 16 16 17 17 17 17 17 18 18 18 18 18 19 18 18 18 19 19 19 19 19 19 20 20 20 21 21 22 24 31 35 40 46 52 72 76 76 55 45 29 28 26 24 23 21 20 19 17 16 16 16 18 21 21 22 22 23 23 23 23 22 22 22 22 22 21 21 21 21 21 21 20 20 21 21 21 22 22 22 22 23 24 25 26 26 26 27 27 27 29 30 32 33 33 34 31 31 32 32 31 31 32 32 32 32 33 33 33 33 34 34 33 30 30 30 31 31 31 31 31 31 32 32 32 32 32 32 33 33 33 33 33 34 36 36 38 40 42 42 41 47 50 50 46 44 43 41 40 40 40 -9999 
-9999 15 15 15 15 15 15 16 16 16 16 17 17 17 17 18 18 18 18 18 18 18 19 19 19 19 19 19 19 19 20 20 21 21 21 24 28 33 39 42 48 57 64 57 44 28 27 26 24 22 21 20 19 18 17 16 16 17 21 21 21 22 22 23 23 22 22 22 22 21 21 20 21 21 21 20 20 20 20 21 21 21 21 22 22 23 23 25 26 26 26 26 27 27 27 27 27 27 28 33 35 32 32 32 30 31 32 32 32 32 33 33 33 33 34 34 31 31 32 31 30 30 31 31 31 30 30 31 31 32 32 32 33 33 34 34 34 33 33 33 35 35 36 37 39 39 43 45 45 45 44 43 39 39 39 39 -9999 
-9999 15 14 14 14 14 14 15 15 15 15 16 16 16 16 16 16 17 17 17 18 18 18 19 19 19 19 19 19 19 19 19 20 20 21 22 23 26 32 35 38 42 51 56 45 27 26 25 24 22 21 20 19 18 17 16 16 17 20 21 21 21 22 22 22 22 22 21 21 21 21 18 21 20 20 20 20 20 21 21 21 21 21 21 22 24 26 26 26 26 26 26 26 26 26 27 27 27 27 27 30 33 31 30 30 32 32 32 32 33 33 33 33 34 33 31 31 33 32 32 30 30 30 31 31 30 29 30 31 31 32 33 33 34 34 35 35 35 34 33 33 34 35 35 36 37 38 40 44 45 44 41 39 38 38 37 -9999 
-9999 15 14 13 13 13 13 14 14 14 14 15 15 15 15 15 15 15 15 16 17 18 18 18 18 18 19 19 19 19 19 19 19 19 20 21 22 22 25 28 32 36 42 51 43 26 25 24 23 22 21 20 20 19 17 17 16 18 20 20 21 21 22 22 22 21 21 21 21 21 21 19 19 18 19 20 20 20 20 21 21 21 21 21 23 25 25 26 26 26 26 26 26 26 26 26 26 27 27 27 27 28 30 30 30 32 32 32 33 33 33 33 34 33 33 32 32 32 32 32 30 30 30 31 31 31 30 30 31 31 32 33 33 34 34 35 36 36 35 34 33 33 33 29 31 34 37 41 44 45 44 39 38 38 37 36 -9999 
-9999 15 15 13 13 13 13 13 13 13 14 14 14 14 14 14 14 14 14 15 17 17 18 18 18 18 18 18 19 19 19 19 19 19 19 21 21 21 23 23 27 34 38 44 37 25 24 24 23 21 21 20 20 19 18 17 16 17 19 20 20 21 22 21 21 21 21 21 21 20 20 19 18 19 19 20 20 20 20 22 22 21 21 21 26 25 25 25 25 25 26 26 26 26 26 26 26 26 26 26 27 28 30 30 31 32 32 33 33 33 33 33 33 33 32 32 32 32 31 31 31 30 30 30 31 31 30 30 31 31 32 33 33 34 35 37 37 36 36 35 35 34 33 32 30 34 37 39 41 44 43 37 37 37 35 36 -9999 
-9999 15 15 13 13 13 13 13 13 13 13 14 14 14 14 14 14 14 14 14 17 17 17 17 18 18 18 18 18 18 19 19 19 19 19 19 19 20 22 22 23 25 30 36 31 24 23 23 23 21 21 20 20 19 18 17 17 16 17 20 20 21 21 21 21 21 21 20 20 20 20 20 18 19 19 19 19 20 23 25 26 25 23 25 27 25 25 25 25 25 25 25 26 26 26 26 26 26 26 26 26 28 30 31 31 33 33 33 33 33 33 33 33 32 32 31 31 31 31 31 31 30 30 30 31 31 30 30 31 31 32 33 33 34 35 38 38 37 37 36 35 35 34 34 29 34 35 37 38 41 39 36 36 37 35 35 -9999 
-9999 15 15 13 13 13 13 13 13 13 13 13 13 14 14 14 14 14 14 14 14 17 17 17 17 17 18 18 18 18 18 18 19 19 19 19 19 19 19 20 21 22 23 26 25 23 22 23 22 21 20 20 20 19 18 17 17 16 17 19 21 21 21 21 21 20 20 20 20 20 20 19 19 20 21 20 20 24 28 32 34 31 28 28 28 25 25 25 25 25 25 25 25 25 25 26 26 26 26 26 26 28 30 31 31 33 33 33 33 33 33 33 33 31 31 31 31 31 31 30 30 30 30 30 30 31 30 30 31 31 32 33 33 34 35 39 38 38 37 37 34 35 35 35 29 31 33 34 36 37 35 35 36 36 34 34 -9999 
-9999 15 15 12 13 13 13 13 13 13 13 13 13 13 14 14 14 14 14 14 14 16 17 17 17 17 17 17 18 18 18 18 18 18 19 18 19 19 19 19 20 20 21 21 22 21 21 22 22 20 20 20 21 20 19 17 17 16 17 20 21 21 21 20 20 20 20 20 20 19 19 19 19 20 21 21 23 28 34 41 42 38 33 30 29 24 24 24 25 25 25 25 25 25 25 25 25 25 26 26 27 28 30 31 31 33 33 33 33 33 33 31 31 31 31 31 30 30 30 30 30 30 29 29 29 29 30 30 31 31 32 33 33 34 35 35 36 37 35 33 33 33 34 35 30 28 31 32 34 35 34 34 36 34 34 34 -9999 
-9999 15 15 13 12 12 12 13 13 13 13 13 13 13 13 14 14 14 14 14 14 14 16 16 17 17 17 17 17 17 18 18 18 18 18 18 18 18 18 18 20 20 20 20 20 20 20 21 21 20 20 20 21 20 19 17 16 17 18 20 21 20 20 20 20 20 20 19 19 19 19 19 19 20 21 23 27 34 44 50 51 46 39 32 31 24 24 24 24 24 25 25 25 25 25 25 25 25 25 25 27 28 30 31 31 34 34 34 33 32 29 29 30 30 30 30 30 30 30 29 29 29 29 29 29 29 30 30 31 31 32 33 33 34 35 35 36 36 37 37 33 33 33 34 33 28 29 30 30 32 32 33 35 33 33 33 -9999 
-9999 15 14 13 12 12 12 12 13 13 13 13 13 13 13 13 13 14 14 14 14 14 14 16 16 16 17 17 17 17 17 17 17 18 18 18 18 18 18 18 20 20 20 20 20 19 19 19 19 19 19 20 21 21 18 16 16 17 17 20 20 20 20 20 20 19 19 19 19 19 19 18 19 20 23 27 34 44 53 59 59 53 44 33 32 24 24 24 24 24 24 24 24 25 25 25 25 25 25 26 27 29 31 33 34 36 34 33 30 26 25 25 27 30 30 30 29 29 29 29 29 29 28 28 28 29 30 30 31 31 32 33 33 34 35 35 36 36 37 38 36 33 33 34 33 29 28 27 28 30 31 31 31 32 33 33 -9999 
-9999 15 14 13 12 12 12 12 12 13 13 16 16 16 16 14 13 13 13 13 14 14 14 16 16 16 16 16 16 17 17 17 17 17 17 18 18 17 18 18 20 20 20 20 20 19 19 18 18 17 17 17 17 16 16 16 16 16 15 20 20 20 20 19 19 19 19 19 21 24 24 20 19 21 25 31 40 50 58 63 62 57 47 33 30 24 24 24 24 24 24 24 24 24 24 25 25 25 25 26 27 29 31 33 33 35 34 31 29 26 25 25 26 30 29 29 29 29 29 28 28 28 28 28 28 29 30 30 31 31 32 33 34 34 35 35 36 36 37 38 38 35 33 35 32 29 27 26 27 29 29 28 28 29 31 32 -9999 
-9999 15 14 14 12 12 12 12 12 12 13 16 16 16 16 16 16 16 16 16 16 15 15 15 15 16 16 16 16 16 16 16 16 17 16 16 16 16 17 17 18 20 20 20 20 19 19 17 17 17 17 17 17 16 16 16 16 16 17 19 20 19 19 19 19 19 19 20 24 24 26 23 20 20 26 34 42 49 54 58 58 53 44 32 28 23 23 23 24 24 24 24 24 24 24 24 24 24 25 26 28 29 31 33 33 34 34 33 29 26 25 25 27 29 29 29 29 28 28 28 28 28 28 28 28 29 30 30 31 32 32 35 39 37 36 35 36 36 37 38 38 39 33 33 29 27 27 26 27 28 27 28 28 29 30 31 -9999 
-9999 14 14 14 12 12 12 12 12 12 12 16 16 16 16 16 16 16 16 16 16 16 16 15 15 15 15 16 16 16 16 13 13 13 13 16 16 16 17 15 14 14 17 19 20 19 18 17 17 17 17 17 17 17 17 17 17 17 17 18 19 19 19 19 19 19 20 20 20 21 21 20 19 20 25 31 37 42 46 49 48 45 37 29 25 23 23 23 23 23 24 24 24 24 24 24 24 24 25 26 27 29 30 32 31 32 32 32 29 26 25 25 28 29 28 28 28 28 28 28 27 27 27 28 28 29 30 30 32 37 38 40 39 39 38 35 36 36 37 38 38 38 34 32 30 28 27 25 26 26 27 28 29 30 31 31 -9999 
-9999 14 14 14 12 12 12 12 12 13 15 16 16 16 16 16 16 16 16 16 16 16 16 15 14 15 15 15 15 16 16 12 12 12 12 15 15 15 17 14 14 14 14 14 15 17 18 17 16 16 16 17 17 17 17 17 17 17 16 16 17 18 18 18 18 18 18 18 18 18 18 18 19 19 21 24 28 31 35 38 39 35 29 25 23 23 23 23 23 23 23 23 23 24 24 24 24 24 25 26 27 28 29 30 30 30 30 30 28 26 25 25 27 28 28 28 28 27 27 27 27 27 27 27 28 29 31 33 35 37 39 39 39 38 37 36 36 36 37 38 37 35 36 35 32 30 27 25 26 26 28 28 29 30 30 31 -9999 
-9999 14 14 14 14 13 15 15 15 15 15 16 16 16 16 16 16 16 15 15 15 15 15 15 14 15 15 15 15 15 15 12 12 12 12 15 15 15 16 14 14 14 14 14 14 14 14 14 15 16 16 16 16 17 17 17 17 16 16 16 17 18 18 18 18 18 18 18 18 18 18 18 18 19 19 20 21 24 26 27 26 23 22 22 22 23 23 23 23 23 23 23 23 23 23 24 24 24 25 25 27 28 28 29 29 29 29 29 29 25 25 25 27 28 27 27 27 27 27 27 26 26 27 28 31 33 34 35 38 37 39 39 38 37 36 36 35 34 33 33 34 35 35 37 34 30 27 25 25 26 27 28 29 29 30 31 -9999 
-9999 14 14 14 14 14 15 15 15 15 15 15 15 15 15 15 15 15 15 15 15 15 15 14 14 14 14 15 15 15 14 12 12 12 12 15 15 15 16 14 14 14 14 14 14 14 14 14 14 14 14 14 14 15 15 15 15 16 15 16 16 16 16 16 16 16 16 17 17 17 17 18 18 18 18 19 19 19 19 20 20 20 20 20 20 21 22 22 23 23 23 23 23 23 23 24 23 23 24 25 26 26 27 28 28 28 28 28 28 24 25 25 27 27 27 27 27 26 26 26 26 28 27 34 38 37 38 39 40 42 40 38 37 37 36 35 34 34 33 35 35 35 35 37 35 31 29 24 24 26 27 28 28 29 30 30 -9999 
-9999 14 14 14 14 14 14 14 15 15 15 15 15 15 15 15 15 15 15 15 15 15 15 14 14 14 14 14 14 14 14 12 12 12 12 14 14 15 16 14 14 14 14 14 14 14 14 14 14 14 14 14 14 14 14 14 14 14 14 15 15 15 15 15 15 15 15 16 16 16 17 18 18 18 18 18 18 18 19 19 19 19 19 20 20 20 21 21 21 21 22 23 23 23 23 23 23 23 24 24 25 26 27 27 28 27 27 28 28 24 25 25 27 27 27 26 26 26 26 26 27 28 30 38 42 40 41 42 44 46 44 39 37 36 35 35 34 33 35 35 35 35 34 35 36 32 29 23 23 26 27 27 28 28 29 30 -9999 
-9999 14 14 14 14 14 14 14 14 15 15 15 15 15 15 15 15 15 15 15 15 15 15 14 13 13 14 14 14 14 14 12 12 12 12 14 14 14 16 13 13 13 14 14 14 14 14 14 14 14 14 14 14 14 14 14 14 14 14 14 14 14 15 15 15 15 16 16 16 16 16 16 16 17 17 18 18 18 18 18 18 19 19 19 19 20 20 20 20 20 20 21 21 21 22 22 22 23 23 24 25 26 26 27 27 26 26 27 27 27 27 27 29 27 26 26 26 26 25 25 27 28 31 40 48 52 53 53 51 48 45 43 40 36 35 34 33 32 35 35 35 34 34 34 34 33 27 23 23 25 26 27 27 28 29 29 -9999 
-9999 14 14 14 14 14 14 14 14 14 15 15 15 15 15 15 15 15 15 15 15 15 15 14 13 13 13 13 14 14 13 12 12 12 12 14 14 14 15 13 13 13 13 13 13 13 14 14 14 14 14 14 14 14 14 14 14 14 14 14 14 14 14 14 14 15 16 16 16 16 16 16 16 17 17 17 17 17 17 18 18 18 18 18 18 19 19 19 19 19 20 20 20 21 21 21 21 22 23 24 24 25 24 26 27 25 25 26 26 26 26 27 27 26 26 25 25 25 25 25 27 27 30 44 59 67 67 69 69 62 49 44 41 39 36 34 31 29 34 35 34 34 34 34 33 32 28 24 24 25 26 26 27 28 28 29 -9999 
-9999 14 14 14 14 14 14 14 14 14 14 15 15 15 15 15 15 15 15 15 15 15 15 13 13 13 13 13 13 13 12 12 12 12 12 14 14 14 13 13 13 13 13 13 13 13 13 13 13 13 14 14 14 14 14 14 14 14 14 14 14 14 14 14 14 14 14 14 15 16 16 16 16 17 17 17 17 17 17 17 17 17 17 18 18 18 18 18 18 18 19 19 19 20 20 20 20 21 21 23 23 23 24 26 27 24 24 25 25 25 25 26 26 25 25 25 25 25 24 24 27 27 30 48 63 74 80 85 81 73 61 46 42 40 37 35 30 29 34 34 34 34 34 33 33 32 27 24 24 25 25 26 27 27 28 29 -9999 
-9999 14 14 14 14 15 15 15 14 14 14 15 15 15 15 15 15 14 14 14 14 14 14 13 12 12 13 13 13 13 12 11 11 11 11 13 14 14 13 13 13 13 13 13 13 13 13 13 13 13 13 13 13 13 13 14 14 14 14 14 14 14 14 14 14 14 14 14 14 14 14 15 17 17 17 17 17 17 17 16 16 17 17 17 17 17 17 17 17 18 18 18 19 19 19 19 20 20 20 20 22 22 24 25 26 23 23 24 24 24 25 25 25 25 25 24 24 24 24 24 26 25 29 44 56 70 82 88 89 82 67 53 44 41 41 36 30 29 31 34 34 33 33 33 33 31 27 25 24 24 25 26 26 27 28 28 -9999 
-9999 13 14 14 15 15 15 15 15 14 13 14 14 14 14 14 14 14 14 14 14 14 14 13 13 12 12 12 13 13 13 11 11 11 11 13 13 13 14 13 13 13 13 13 13 13 13 13 13 13 13 13 13 13 13 13 13 13 13 14 14 14 14 14 14 14 14 14 14 14 14 14 14 14 15 16 16 16 17 17 17 16 16 16 16 16 16 16 16 17 17 17 18 18 18 19 19 19 19 19 20 21 22 24 25 22 22 23 23 23 23 24 24 24 24 24 24 24 24 23 23 23 30 41 52 62 71 82 81 76 67 59 49 47 44 37 30 28 30 34 33 33 33 33 32 30 27 26 24 24 25 25 26 27 27 28 -9999 
-9999 12 14 14 14 14 14 14 14 14 14 14 14 14 14 14 14 14 14 14 14 14 14 12 13 13 12 12 13 13 12 11 11 11 11 13 13 13 13 13 13 13 13 13 13 13 13 13 13 13 13 13 13 13 13 13 13 13 13 13 13 13 13 14 14 14 14 14 14 14 14 14 14 14 14 14 14 15 16 16 16 16 16 16 16 16 16 16 16 17 16 17 17 17 18 18 18 18 18 19 19 19 20 22 23 21 21 22 22 22 22 23 23 23 24 24 23 23 23 23 23 23 27 41 50 55 60 70 73 68 62 56 50 48 45 37 30 29 31 32 32 32 32 32 33 29 28 24 22 24 24 25 26 26 27 27 -9999 
-9999 12 12 14 14 14 14 14 14 14 14 14 14 14 14 14 14 14 14 14 14 14 14 12 12 12 13 13 13 13 12 11 11 11 11 13 13 13 14 13 13 13 13 13 13 13 13 13 13 13 13 13 13 13 13 13 13 13 13 13 13 13 13 13 13 13 13 14 14 14 14 14 14 14 14 14 14 14 14 14 15 16 16 16 16 16 16 16 16 16 16 16 16 17 17 17 17 17 18 18 18 18 19 19 20 20 20 21 21 21 22 22 22 22 23 23 23 23 23 22 22 22 22 34 45 52 55 59 64 61 53 49 48 43 37 32 29 27 28 29 29 30 30 30 31 29 27 22 22 22 24 25 25 26 26 27 -9999 
-9999 12 14 14 14 14 14 14 14 14 14 14 14 14 14 14 14 14 14 14 14 14 14 12 12 12 12 12 13 13 12 11 11 11 11 13 13 13 13 12 12 12 12 12 13 13 13 13 13 13 13 13 13 13 13 13 13 13 13 13 13 13 13 13 13 13 13 13 13 13 13 14 14 14 14 14 14 14 14 14 14 14 14 15 16 16 16 16 16 16 16 16 16 16 16 16 16 16 17 17 17 17 18 19 19 19 20 20 20 20 21 21 21 21 22 23 22 22 22 22 22 22 21 26 35 42 49 52 52 49 43 37 35 32 30 27 25 25 25 24 26 27 28 28 29 29 28 22 22 22 24 24 25 25 26 27 -9999 
-9999 10 14 14 14 14 14 14 14 14 14 14 14 14 14 14 14 14 14 14 14 14 14 12 12 12 12 12 12 12 12 11 11 11 11 12 12 12 13 12 12 12 12 12 12 12 12 12 13 13 13 13 13 13 13 13 13 13 13 13 13 13 13 13 13 13 13 13 13 13 13 13 13 13 13 14 14 14 14 14 14 14 14 14 14 14 15 16 16 16 16 16 16 16 16 16 16 16 16 16 16 16 17 18 18 18 19 19 19 19 20 20 20 20 21 21 22 22 22 22 21 21 21 23 26 27 28 28 28 28 29 28 26 24 23 22 21 21 20 20 21 23 25 26 27 29 27 23 22 22 22 23 24 25 26 26 -9999 
-9999 12 14 14 14 14 14 14 14 14 14 14 14 14 14 14 13 13 13 13 13 13 13 11 11 12 12 12 12 12 11 11 11 11 11 12 12 12 13 12 12 12 12 12 12 12 12 12 12 12 12 12 13 13 13 13 13 13 13 13 13 13 13 13 13 13 13 13 13 13 13 13 13 13 13 13 13 13 13 14 14 14 14 14 14 14 14 14 14 14 15 15 15 16 16 16 16 16 16 16 16 16 16 16 17 17 17 17 17 18 19 19 19 19 20 20 20 21 20 20 19 19 19 20 22 23 23 22 21 20 20 20 20 20 19 19 19 19 20 20 20 20 20 20 24 29 26 21 21 21 21 22 24 25 25 26 -9999 
-9999 13 14 14 14 14 14 14 13 13 13 13 13 13 13 13 13 13 13 13 13 13 13 11 11 11 11 12 12 12 11 11 11 11 11 12 12 12 13 12 12 12 12 12 12 12 12 12 12 12 12 12 12 12 12 12 13 13 13 13 13 13 13 13 13 13 13 13 13 13 13 13 13 13 13 13 13 13 13 13 13 13 14 14 14 14 14 14 14 14 14 14 14 14 15 15 15 15 15 16 16 16 16 16 16 17 17 17 17 17 17 17 18 18 18 18 19 19 19 19 19 19 20 20 20 20 20 20 20 20 20 20 20 20 20 21 21 21 21 20 20 20 20 20 23 30 26 21 21 22 23 23 23 24 25 26 -9999 
-9999 13 13 14 14 13 14 14 13 13 13 13 13 13 13 13 13 13 13 13 13 13 13 12 12 11 12 12 12 12 11 11 11 11 11 12 12 12 12 12 12 12 12 12 12 12 12 12 12 12 12 12 12 12 12 12 12 12 12 12 13 13 13 13 13 12 13 13 13 13 13 13 13 13 13 13 13 13 13 13 13 13 13 14 14 14 14 14 14 14 14 13 13 13 12 13 13 14 15 15 16 16 16 16 16 17 17 17 17 17 17 17 18 18 18 18 19 19 19 19 19 19 20 20 20 20 20 20 20 20 20 20 20 21 21 21 21 21 21 21 20 20 20 20 23 26 23 20 20 21 22 22 22 23 24 25 -9999 
-9999 13 13 13 13 12 13 13 13 13 13 13 13 13 13 13 13 13 13 13 13 13 12 12 12 12 12 12 12 12 12 12 12 12 12 12 12 12 12 12 12 12 12 12 12 12 12 12 12 12 12 12 12 12 11 12 12 12 12 12 12 12 12 13 12 12 12 13 13 13 13 12 13 13 13 13 12 12 13 13 13 13 13 13 13 13 14 14 14 14 14 13 12 12 10 10 11 13 15 16 16 16 16 16 16 16 16 16 16 17 17 17 17 18 18 18 18 18 19 19 19 19 20 20 20 20 21 21 21 21 21 21 21 21 21 20 20 21 20 20 20 19 19 19 20 21 20 19 19 19 20 20 21 21 23 24 -9999 
-9999 13 13 13 13 11 13 13 14 13 13 13 13 13 13 13 13 13 13 13 13 12 12 12 13 13 12 12 12 12 12 12 12 12 12 12 12 12 12 12 12 12 12 12 12 12 12 12 12 12 12 12 12 11 11 11 11 11 11 11 12 12 12 13 12 11 12 13 13 13 13 13 13 13 13 12 12 12 12 12 12 13 13 13 13 13 13 14 14 14 15 13 11 11 7 7 8 12 16 15 16 16 16 16 16 16 16 16 16 16 17 17 17 17 18 18 18 18 19 19 19 19 19 20 20 20 21 21 21 21 21 21 21 21 21 20 19 20 19 19 19 19 18 18 18 18 18 18 17 17 17 18 19 20 21 22 -9999 
-9999 13 13 13 13 11 13 13 14 14 13 13 13 13 13 13 13 13 13 14 13 13 11 12 13 13 12 12 12 12 12 12 12 12 12 12 12 12 12 12 12 12 12 12 12 12 12 12 12 12 12 12 11 11 11 11 11 11 11 11 12 11 12 12 12 11 12 13 13 13 13 13 13 13 13 13 12 13 13 12 12 13 13 13 13 13 13 13 13 13 14 13 11 11 9 8 10 14 15 15 16 16 16 16 17 17 16 15 16 16 15 15 16 15 16 16 16 18 17 17 17 18 18 18 19 20 20 20 21 21 21 21 21 21 21 18 17 17 18 18 18 18 18 18 18 18 18 18 17 17 17 17 17 18 19 20 -9999 
-9999 13 13 13 9 13 13 13 14 14 14 14 14 14 14 14 14 14 14 14 14 13 12 11 13 13 12 12 12 12 12 12 12 12 12 12 12 12 12 12 12 12 12 12 12 12 12 12 12 12 12 11 11 11 11 11 11 11 11 11 11 11 11 11 12 12 11 12 12 13 13 13 13 12 12 13 12 12 13 12 12 13 13 13 13 13 14 14 13 13 13 13 13 14 14 14 15 14 14 14 15 16 16 16 15 14 14 14 14 15 15 15 15 16 16 16 16 17 18 18 17 18 18 18 19 20 20 20 20 20 21 21 21 20 20 17 17 17 17 17 18 18 18 18 18 18 18 18 18 18 17 17 17 16 16 17 -9999 
-9999 13 13 10 9 14 14 13 14 14 13 14 14 15 14 14 14 14 14 14 14 13 13 11 13 12 12 12 12 12 12 12 12 12 12 12 12 12 12 11 12 12 12 12 11 11 11 11 12 12 12 11 11 11 11 11 11 11 11 11 11 11 11 11 11 11 11 11 12 12 12 12 12 12 13 13 12 12 13 12 12 13 13 13 12 13 13 14 14 13 13 13 14 14 15 15 15 14 14 14 14 14 15 17 14 13 14 14 14 15 14 15 15 16 16 16 16 17 17 17 18 18 18 18 20 20 20 20 20 20 20 20 19 19 18 17 17 17 17 17 18 18 18 18 18 18 18 18 17 17 17 17 16 16 16 16 -9999 
-9999 8 8 11 14 13 13 13 13 13 13 14 13 14 13 14 14 14 14 14 14 13 12 11 13 12 12 12 12 12 12 11 11 11 12 11 11 12 11 11 12 12 12 12 12 12 12 12 12 12 11 11 11 11 11 11 11 11 11 11 12 12 12 12 11 11 11 12 12 12 12 12 12 12 12 12 13 12 14 13 13 13 12 13 13 13 13 13 13 13 13 13 13 13 13 13 13 13 14 14 14 14 14 16 15 14 14 14 14 14 14 15 15 15 16 16 16 17 17 17 18 18 18 18 20 20 20 20 20 20 20 20 19 19 18 18 19 19 18 18 18 18 18 18 18 18 18 17 17 16 17 18 18 17 16 16 -9999 
-9999 12 12 13 13 13 13 13 13 13 13 13 13 14 13 14 14 14 14 14 14 13 12 12 13 13 13 12 12 12 12 12 11 11 11 11 12 11 12 11 11 12 12 12 12 12 11 12 12 12 11 11 12 11 11 11 11 11 11 11 12 12 12 12 11 11 12 12 12 12 12 12 12 12 11 12 12 12 12 13 13 13 13 12 12 13 13 13 13 13 13 13 13 14 13 12 13 13 13 14 14 14 14 15 15 14 14 14 14 14 14 14 15 15 15 16 17 17 18 18 18 18 18 18 20 20 20 20 20 20 20 21 20 20 20 20 20 20 19 19 19 19 19 19 18 18 17 18 17 17 18 18 18 18 17 17 -9999 
-9999 12 12 12 12 12 13 13 12 13 13 11 12 13 13 13 13 13 13 14 14 13 13 12 12 12 12 12 12 12 12 12 11 11 12 12 12 12 11 11 11 12 12 12 12 12 12 12 12 12 11 11 11 11 11 11 11 11 12 12 12 12 12 12 11 11 12 12 12 12 12 12 12 12 11 12 12 12 12 12 12 13 13 13 13 13 13 13 13 13 13 13 13 14 14 14 14 14 14 14 14 14 13 15 15 15 14 15 14 14 14 14 15 15 15 16 17 17 17 17 18 18 18 18 19 20 20 20 20 19 19 20 20 20 20 20 20 20 19 19 19 19 19 19 18 18 18 18 18 18 18 17 17 17 17 17 -9999 
12 12 12 12 12 13 13 13 12 13 14 11 11 13 13 13 13 13 13 13 13 13 13 13 12 12 12 12 12 12 12 12 12 11 11 11 11 11 11 11 11 11 12 12 12 11 12 12 11 11 11 12 11 11 11 11 11 11 12 11 11 11 12 12 11 11 11 11 11 12 11 11 12 12 11 11 12 12 12 12 12 12 12 12 12 13 12 12 13 13 13 13 13 14 13 13 14 14 14 14 14 14 13 13 13 15 14 15 15 15 15 16 16 16 16 17 17 18 18 18 18 18 18 18 18 18 19 19 18 18 18 19 19 19 20 20 20 20 19 19 19 19 19 19 18 18 18 18 18 17 18 18 18 17 17 17 -9999 
12 12 12 12 12 12 13 13 12 13 14 9 6 13 14 14 14 14 14 13 13 13 13 13 13 12 12 12 12 12 12 12 12 12 12 12 12 12 11 11 11 11 12 11 11 12 12 12 11 11 11 11 11 11 11 11 11 11 11 11 11 11 11 12 11 12 11 11 12 11 11 11 11 11 11 12 11 12 12 13 12 13 12 12 12 13 13 13 13 14 14 14 14 14 13 14 14 14 13 13 14 13 13 14 13 14 14 15 15 15 15 16 16 17 17 17 17 18 18 18 18 18 18 18 18 18 18 18 18 18 19 18 18 19 19 19 19 19 19 19 19 19 19 19 18 18 18 18 18 17 18 18 18 17 17 17 -9999 
12 12 12 12 12 12 13 13 13 13 13 9 11 14 14 13 13 14 13 13 13 13 13 12 12 12 12 12 12 12 12 12 12 12 12 11 11 11 11 11 11 11 11 11 11 11 11 11 11 11 11 11 11 11 11 11 11 11 11 11 11 11 11 11 11 11 11 11 11 11 11 11 11 11 11 11 11 12 12 12 12 12 12 12 12 12 12 12 12 13 13 13 13 13 13 13 13 13 13 13 13 13 13 14 13 15 15 15 15 15 15 16 16 16 16 18 17 17 17 17 17 17 17 17 18 18 18 18 18 19 19 18 18 19 18 18 19 18 19 20 20 20 20 20 18 18 18 18 18 17 17 17 17 17 17 17 -9999 
12 12 12 13 13 13 13 13 13 13 13 12 13 13 13 13 13 13 12 12 12 12 12 12 12 12 12 12 12 12 12 12 12 11 11 11 11 11 11 11 11 11 11 11 11 11 11 11 11 11 11 11 11 11 11 11 12 12 11 11 11 11 11 11 11 11 11 11 11 11 11 11 11 11 11 11 11 11 12 12 12 12 12 12 12 12 12 12 12 12 12 12 13 13 13 13 13 14 13 13 13 13 13 14 13 15 15 15 15 15 15 16 17 17 18 18 18 17 17 17 17 17 17 17 18 18 18 18 18 19 19 19 19 19 18 18 17 17 20 20 20 20 20 20 18 18 18 18 18 18 18 17 17 17 17 17 -9999 
12 12 12 12 12 12 12 12 12 12 12 12 12 12 12 12 12 12 12 12 12 12 12 12 12 12 12 12 11 12 12 12 12 12 12 12 12 12 11 11 11 12 11 11 11 11 11 11 11 11 11 11 11 11 11 11 11 11 11 11 11 12 12 12 12 12 12 11 12 12 11 11 11 11 11 11 11 11 11 12 12 12 12 12 12 12 12 12 12 12 12 13 13 13 13 13 13 13 13 13 13 13 13 13 13 14 15 15 15 15 14 15 17 16 17 17 17 17 17 16 16 16 17 18 18 18 18 18 18 18 18 19 19 19 18 17 17 17 20 20 20 20 20 20 19 18 19 19 18 18 18 17 17 17 17 17 -9999 
12 12 12 12 12 12 12 12 12 13 13 12 13 13 13 13 12 13 13 13 13 13 13 13 13 13 12 12 12 12 12 12 12 12 12 12 12 12 11 12 12 12 12 11 11 11 11 11 11 11 11 11 11 11 10 11 11 10 10 11 11 12 12 11 12 12 11 11 11 11 11 11 11 11 11 11 11 12 12 12 13 13 13 13 12 12 12 12 12 13 12 12 13 13 13 13 13 13 13 13 14 13 13 13 13 14 14 15 15 15 14 15 16 16 17 17 17 16 16 15 15 16 17 17 17 17 17 17 18 18 18 18 18 19 18 17 17 17 20 20 20 20 20 19 18 19 18 18 18 18 18 18 18 18 18 17 -9999 
13 13 13 13 13 13 12 13 13 13 13 13 14 13 13 12 13 12 13 13 13 13 13 13 13 13 12 12 12 12 12 12 12 12 12 12 12 12 12 11 12 12 10 11 11 11 11 11 11 11 11 11 11 11 10 11 11 10 11 11 11 11 11 11 10 11 11 11 11 10 10 11 11 11 11 11 11 12 12 11 13 13 13 12 12 12 12 12 12 12 12 12 14 14 14 13 13 12 12 13 13 13 13 13 13 14 14 15 15 15 15 15 15 16 16 16 16 15 15 15 15 15 16 16 17 17 17 17 18 18 18 18 18 18 17 17 17 17 20 21 21 21 21 20 19 18 18 19 18 18 18 18 17 18 18 18 -9999 
12 12 13 13 13 14 14 13 13 13 13 13 13 13 12 12 12 12 13 13 13 13 13 13 13 13 12 12 12 12 12 12 12 12 13 12 12 12 12 11 12 12 10 11 12 11 11 11 10 11 11 10 10 10 10 10 11 10 11 11 11 11 11 11 11 11 10 11 11 10 10 10 10 11 11 11 11 11 12 11 11 10 11 11 12 12 12 12 12 12 12 12 13 13 13 13 13 12 12 13 13 13 13 13 13 14 14 14 14 14 15 15 15 16 16 15 15 15 15 15 15 14 15 15 16 16 16 17 17 17 17 17 18 17 17 17 17 17 19 21 21 21 21 20 19 18 18 18 18 18 18 18 18 18 18 18 -9999 
12 13 13 13 13 14 14 13 13 13 14 14 13 13 12 12 12 12 13 13 13 13 13 13 13 13 12 12 12 12 12 12 12 13 12 12 12 12 12 12 12 12 11 11 11 11 11 11 10 10 10 10 10 10 10 10 10 10 10 11 10 10 10 10 10 10 10 10 10 10 10 10 10 11 11 11 12 12 12 11 11 11 11 12 12 12 12 12 13 12 12 12 13 13 12 12 12 12 13 13 13 13 13 13 14 14 15 15 14 15 15 15 15 16 16 15 15 16 15 15 15 14 14 14 14 14 16 16 17 16 16 16 17 17 17 18 17 19 19 21 21 21 21 20 19 18 18 19 18 19 19 18 18 18 18 18 -9999 
13 12 12 13 12 14 13 13 13 14 14 13 13 13 12 13 12 12 13 13 13 13 13 13 13 13 12 12 12 12 12 12 12 12 12 12 12 12 12 12 12 12 11 11 11 11 11 11 10 11 10 10 10 10 10 10 10 11 10 10 10 10 10 11 10 10 10 10 10 10 11 11 11 11 11 11 12 12 11 11 11 11 12 12 12 12 12 12 12 12 12 12 13 13 12 12 12 13 13 13 14 14 13 14 15 15 15 15 15 15 15 15 15 16 15 14 14 16 16 15 16 14 14 14 14 14 16 16 17 16 16 17 17 18 18 18 19 19 20 21 21 21 21 21 19 19 19 19 18 19 19 19 19 19 19 19 -9999 
12 12 12 12 12 12 13 13 13 13 13 12 13 13 13 12 12 12 13 13 13 13 13 13 13 13 12 12 12 12 12 12 12 12 12 12 12 12 12 12 11 12 11 11 11 11 11 11 10 10 10 10 10 10 10 10 10 11 11 10 10 10 10 10 10 10 10 10 10 10 11 11 11 11 12 12 12 12 11 11 11 12 12 12 11 12 12 12 12 12 13 13 13 13 12 13 13 14 13 14 15 15 14 15 15 14 14 15 15 15 15 15 15 15 15 15 16 16 16 16 16 16 16 15 16 16 17 17 18 18 18 18 18 19 19 19 19 20 21 22 22 22 22 21 19 20 21 21 19 20 20 19 19 19 19 19 -9999 
12 13 12 12 12 12 12 13 13 13 13 12 12 13 13 12 12 12 12 13 13 14 13 12 12 12 12 12 12 12 12 12 13 12 12 12 12 12 12 12 12 11 10 11 11 10 11 11 10 10 10 9 9 9 10 10 10 10 11 10 10 9 9 10 10 10 10 10 10 10 11 11 11 11 12 12 12 12 12 11 11 12 12 12 12 13 12 13 13 13 13 13 13 13 13 14 14 14 14 15 15 15 15 15 15 15 15 15 15 15 15 15 15 16 16 16 16 16 16 16 16 16 16 16 16 17 18 18 18 18 18 18 19 19 20 20 20 21 22 22 22 22 22 21 20 21 22 21 21 20 20 19 19 19 19 19 -9999 
11 12 12 12 11 12 12 12 13 13 13 13 13 13 13 12 12 12 13 12 13 13 12 12 12 12 13 13 12 12 12 12 12 12 12 12 12 12 12 11 12 12 11 10 11 11 11 10 9 10 11 10 10 10 10 10 10 10 10 10 10 10 9 10 10 9 9 10 10 10 11 11 11 10 10 10 11 12 12 11 11 11 12 12 13 13 13 13 13 13 13 14 13 13 14 14 14 14 15 15 15 15 15 15 15 15 15 15 15 15 15 15 15 15 16 16 16 17 17 16 16 16 16 17 17 18 18 18 19 19 18 18 19 20 20 20 19 21 22 22 22 22 22 21 21 22 22 21 21 20 20 20 20 20 20 19 -9999 
8 12 12 12 12 12 12 12 12 12 12 13 13 13 12 12 12 12 12 12 12 12 12 12 13 13 13 13 13 13 12 12 13 12 12 12 12 11 11 11 11 11 11 10 11 12 11 10 10 10 11 11 11 10 10 10 10 10 10 10 9 9 9 9 10 10 10 10 10 10 10 11 11 11 11 10 10 10 10 10 10 11 13 13 13 13 14 14 14 14 14 14 13 14 14 14 14 14 15 15 15 15 15 15 15 15 15 15 15 15 16 16 16 16 16 16 16 16 17 16 16 16 16 18 19 20 20 19 19 19 18 18 19 20 21 21 21 22 23 23 23 23 23 21 21 21 22 21 21 20 20 20 20 20 20 20 -9999 
7 8 12 12 12 12 12 12 12 12 13 12 12 12 13 12 12 12 12 12 12 12 12 12 13 13 13 13 13 13 13 12 12 12 12 12 12 11 11 11 11 11 11 11 12 12 10 10 10 11 11 10 10 11 11 10 10 10 10 10 10 10 10 10 10 10 10 10 10 10 10 11 11 12 12 12 12 10 10 11 13 14 14 14 14 14 14 14 14 14 14 13 13 14 14 14 14 15 15 15 15 15 15 15 15 15 15 15 15 15 16 16 16 16 16 16 16 16 17 17 18 18 18 20 20 20 20 20 20 19 19 19 20 20 21 22 22 22 23 23 23 23 23 22 21 21 21 21 21 21 21 21 21 20 20 20 -9999 
11 7 8 13 13 13 12 12 12 12 12 12 13 12 13 12 12 12 12 12 12 12 12 13 13 13 13 13 13 13 13 12 12 12 12 12 11 11 11 11 11 11 11 11 12 12 10 10 10 11 10 10 10 10 11 10 10 10 10 10 10 10 10 10 10 10 10 10 10 10 11 11 12 12 12 13 13 11 13 14 14 14 14 14 14 14 14 14 14 14 14 14 15 14 14 14 14 15 15 15 15 15 15 15 15 15 16 16 16 15 16 16 16 16 16 16 16 17 18 18 18 19 19 20 20 20 20 20 20 20 20 21 21 21 22 22 22 22 23 23 23 23 23 22 22 22 22 21 21 21 21 21 21 20 20 20 -9999 
12 11 9 10 12 12 13 13 12 12 12 12 13 12 12 12 12 12 12 12 12 12 12 13 13 13 13 13 13 13 13 12 12 12 12 12 11 11 11 11 11 11 11 11 12 11 10 10 10 10 10 10 10 10 11 10 10 10 10 10 10 10 10 10 10 10 10 10 10 10 11 12 12 12 13 13 13 14 14 14 14 14 14 14 14 14 14 14 14 14 14 15 15 14 14 14 14 15 15 15 15 15 15 15 15 15 15 15 15 15 15 16 16 17 17 18 18 18 18 18 19 19 19 20 20 20 20 20 19 20 20 21 22 22 23 23 23 23 23 23 23 23 23 23 23 22 22 22 22 21 21 21 21 21 20 20 -9999 
13 13 11 8 12 13 12 13 13 13 13 12 12 13 13 13 12 13 13 13 13 13 12 12 13 13 13 13 13 13 13 12 12 12 12 12 12 11 11 11 11 11 10 11 11 11 10 10 10 10 10 10 10 10 10 10 10 10 10 10 10 10 10 10 10 10 10 10 10 11 11 12 12 12 13 13 13 14 14 14 14 14 14 14 14 14 14 14 14 15 14 15 15 15 14 14 14 14 15 15 15 15 15 15 15 15 15 14 15 15 16 16 16 16 17 17 18 19 19 19 19 19 19 20 21 21 21 21 21 21 21 22 23 23 23 23 23 23 24 24 24 24 23 23 23 22 22 22 22 21 21 21 21 21 20 20 -9999 
12 12 11 10 11 12 12 12 13 13 12 12 12 12 13 13 13 13 13 13 13 13 13 13 13 13 13 13 13 13 13 12 12 12 12 12 12 12 11 11 11 11 11 11 11 11 11 10 10 10 10 10 10 10 10 10 10 10 10 10 10 10 10 10 10 10 10 10 10 10 11 11 12 12 12 12 13 13 13 13 13 13 14 14 14 14 14 14 14 14 14 14 14 14 14 14 14 14 15 15 15 15 15 15 15 15 15 15 17 17 17 18 17 17 17 17 18 19 19 19 20 20 20 21 21 21 22 22 22 21 22 22 23 23 23 23 23 23 24 24 24 24 23 23 23 23 23 22 22 22 22 22 21 21 20 20 -9999 
11 11 11 10 11 12 12 12 12 12 12 12 12 12 12 13 13 13 13 13 13 13 13 13 13 12 12 12 12 12 13 13 13 13 12 12 12 12 12 12 12 12 12 12 12 12 11 11 11 11 11 11 11 11 11 11 11 11 11 11 11 10 10 10 10 10 9 9 10 10 10 10 11 11 11 11 12 12 12 12 12 13 13 13 13 13 13 14 14 14 14 14 14 14 14 14 14 14 14 14 14 14 14 14 14 15 15 15 19 21 20 19 18 18 18 18 19 19 19 20 20 21 21 21 22 22 22 22 22 22 22 23 23 24 24 24 24 24 24 24 24 24 24 24 24 23 23 23 23 22 22 22 22 22 19 19 -9999 
11 11 11 11 11 12 12 12 12 12 12 12 12 12 12 12 13 13 13 13 13 13 13 13 13 12 12 12 12 12 13 13 13 13 12 12 12 12 12 12 12 12 12 12 12 12 12 11 11 11 11 11 11 11 11 11 11 11 11 11 11 10 10 10 10 10 9 9 10 10 10 10 11 11 11 11 11 12 12 12 12 12 13 13 13 13 13 14 14 13 13 14 14 14 14 14 14 14 14 14 14 14 14 14 14 14 15 15 20 24 22 21 19 19 19 18 19 19 19 20 21 22 22 22 22 23 23 23 23 23 23 23 24 24 24 24 24 24 24 24 24 24 24 24 24 24 23 23 23 23 23 23 23 23 19 18 -9999 
11 11 11 9 11 12 12 12 12 12 12 12 12 12 12 12 12 13 13 13 13 13 13 13 13 13 12 12 12 12 13 13 13 13 12 12 12 12 12 12 12 12 12 12 12 12 12 11 11 11 11 11 11 11 11 11 11 11 11 11 10 10 10 10 10 9 9 9 9 10 10 10 10 11 11 11 11 11 12 12 12 12 12 13 13 13 13 13 12 12 14 14 14 14 14 14 14 14 14 14 14 14 14 14 14 14 15 15 20 23 21 19 18 17 18 19 19 19 20 20 20 22 22 22 23 23 23 23 23 23 23 23 24 24 24 24 24 24 24 24 24 24 23 23 23 23 23 23 23 23 23 23 23 23 20 19 -9999 
11 11 9 10 12 12 12 12 12 12 12 12 12 12 12 12 12 12 13 13 13 13 13 13 13 13 12 12 12 12 13 13 13 12 12 12 12 12 12 12 12 12 12 12 12 12 12 11 11 11 11 11 11 11 11 11 11 11 11 11 10 10 10 10 10 9 9 9 9 10 10 10 10 10 11 11 11 11 11 12 12 12 12 13 13 13 13 12 12 12 14 14 14 14 14 14 14 14 14 14 14 14 14 14 14 14 15 15 20 20 18 17 17 17 17 19 19 20 20 20 21 22 22 22 23 23 23 23 23 23 23 23 24 24 24 24 24 24 23 23 23 23 23 23 23 23 23 23 23 23 23 23 23 23 21 19 -9999 
11 10 10 12 12 12 12 12 12 12 12 12 12 12 12 12 12 12 12 13 13 13 13 13 13 12 12 12 12 12 13 13 13 12 11 11 12 12 12 12 12 12 12 12 12 12 12 11 11 11 11 11 11 11 11 11 11 11 11 10 10 10 10 10 9 9 9 9 9 10 10 10 10 10 11 11 11 11 11 12 12 12 12 12 13 13 12 12 12 13 14 14 14 14 14 14 14 14 14 14 14 14 14 14 14 14 15 15 19 18 16 17 17 17 17 19 20 20 20 21 21 21 22 23 23 23 23 23 23 23 23 24 24 24 24 23 23 23 23 23 23 23 23 23 23 23 23 23 23 23 23 23 23 23 22 20 -9999 
10 9 12 12 12 12 12 12 12 12 12 12 12 12 12 12 12 12 12 12 13 13 13 13 13 12 12 12 12 12 12 12 12 11 11 11 12 12 12 12 12 12 12 12 12 12 12 11 11 11 11 11 11 11 11 11 11 11 11 10 10 10 10 10 9 9 9 9 9 9 10 10 10 10 10 11 11 11 11 11 12 12 12 12 12 12 12 12 12 14 14 14 14 14 14 14 14 14 14 14 14 13 13 13 13 13 15 15 18 17 16 17 17 18 18 19 20 20 20 21 21 21 22 23 23 23 23 23 23 24 24 24 23 23 23 23 23 23 23 23 23 23 23 23 23 23 23 23 23 23 23 23 23 23 22 20 -9999 
9 12 12 12 12 12 12 12 12 12 12 12 12 12 12 12 12 12 12 12 12 13 13 13 11 11 11 12 11 12 11 11 11 12 12 11 11 11 12 12 12 12 12 12 12 12 12 11 11 11 11 11 11 11 11 11 11 11 10 10 10 10 10 9 9 9 9 9 8 9 10 10 10 10 10 11 11 11 11 11 12 12 12 12 12 12 12 12 12 14 14 14 14 14 13 13 13 13 13 13 13 13 13 13 13 13 15 15 15 14 14 16 17 17 18 20 20 20 21 21 21 22 23 23 23 23 23 24 24 24 24 23 23 23 23 23 23 23 23 23 23 23 23 23 23 23 23 23 23 23 23 23 23 23 23 21 -9999 
12 12 12 12 12 12 12 12 12 12 12 12 12 12 12 12 12 12 12 12 12 12 13 13 11 11 11 11 11 11 11 11 12 12 12 12 11 11 12 12 12 12 12 12 12 12 12 11 11 11 11 11 10 10 10 10 10 10 10 10 10 10 10 9 9 9 9 9 8 9 9 10 10 10 10 10 11 11 11 11 11 12 12 12 12 12 12 12 12 13 13 13 13 13 13 13 13 13 13 13 13 13 13 13 13 13 15 15 14 14 14 14 16 17 17 19 20 21 21 21 22 22 23 23 23 23 24 24 24 24 24 23 23 23 23 23 23 23 23 23 23 23 23 23 23 23 23 23 23 23 23 23 23 23 23 21 -9999 
12 12 12 12 12 12 12 12 12 12 12 12 12 12 12 12 12 12 12 12 12 12 12 12 11 11 11 11 11 11 11 11 12 11 11 11 11 11 11 11 10 11 11 12 11 11 11 10 9 7 7 7 7 7 9 10 10 10 10 10 10 10 9 9 9 9 9 8 8 8 9 9 10 10 10 11 11 11 11 11 11 11 11 11 11 12 12 12 12 13 13 13 13 13 13 13 13 13 13 13 13 13 13 13 13 14 14 15 14 14 14 14 16 17 17 19 21 21 21 22 22 22 23 23 24 24 24 24 24 24 24 23 23 23 23 23 23 23 23 23 23 23 23 23 23 23 23 23 23 23 23 23 23 23 23 22 -9999 
12 12 12 12 12 12 12 12 12 12 12 12 12 12 12 12 12 12 12 12 12 12 12 11 11 11 11 11 11 11 12 11 11 11 11 11 11 11 11 12 11 12 11 10 10 10 10 11 8 -3 -4 -6 -7 -8 -8 -4 -3 4 10 10 10 9 9 9 9 9 9 8 8 8 9 9 10 11 11 11 11 11 11 11 11 11 11 11 11 11 11 11 12 13 13 13 13 13 13 13 13 13 13 13 13 13 13 13 13 14 14 14 14 14 14 14 17 17 18 19 21 21 21 22 22 22 23 24 24 24 24 24 24 24 24 23 23 23 23 23 23 23 23 23 23 23 23 23 23 23 23 23 23 23 23 23 23 23 22 22 -9999 
12 12 12 12 12 12 12 12 12 12 12 12 12 12 12 12 12 12 12 12 12 12 12 11 11 11 11 10 11 11 12 12 11 11 11 11 11 11 12 12 12 12 11 10 10 10 10 10 7 -3 -5 -6 -7 -8 -10 -11 -12 -9 10 10 10 9 9 9 9 9 8 8 8 9 11 11 11 11 11 11 11 11 11 11 11 11 11 11 11 11 11 11 11 13 13 13 13 13 13 13 13 13 13 13 13 13 13 13 13 13 14 14 14 14 14 14 17 18 18 19 21 21 22 22 22 23 23 24 24 24 24 24 24 24 24 23 23 23 23 23 23 23 23 23 23 23 23 23 23 23 23 23 23 23 22 22 22 22 22 22 -9999 
12 12 12 12 12 12 12 12 12 12 12 12 12 12 12 12 12 12 12 12 12 12 12 11 11 11 11 11 11 11 11 11 11 10 11 11 11 12 13 12 13 12 12 10 10 9 9 10 9 -3 -5 -6 -7 -9 -10 -11 -13 -11 9 10 9 9 9 9 9 9 9 10 11 11 11 11 11 11 11 11 11 11 11 11 11 11 11 11 11 11 11 11 11 13 13 13 13 13 13 13 13 13 13 13 13 13 13 13 13 14 14 14 14 14 14 15 18 19 20 21 21 22 22 22 23 23 23 24 24 24 24 24 24 24 24 23 23 23 23 23 23 23 23 23 23 23 23 23 23 23 22 22 22 22 22 22 22 22 22 22 -9999 
11 11 12 12 12 12 12 12 12 12 12 12 12 12 12 12 12 12 12 12 12 12 12 11 11 11 10 10 10 11 11 11 11 10 10 11 10 11 10 11 11 11 11 10 10 10 10 10 9 8 -3 -2 0 0 0 -10 -12 -8 9 10 9 9 9 9 10 10 10 10 10 10 11 11 11 11 11 11 11 11 11 11 11 11 11 11 11 11 11 11 11 13 13 13 13 13 13 13 13 13 13 13 13 13 13 13 13 14 14 15 14 15 16 17 18 19 20 21 22 22 22 23 23 23 24 24 24 24 24 24 24 24 24 23 23 23 23 23 23 23 23 23 23 23 22 22 22 22 22 22 22 22 22 22 22 22 22 23 -9999 
11 11 11 12 12 12 12 12 12 12 12 12 12 12 12 12 12 12 12 12 12 12 12 11 11 10 10 10 10 10 11 11 10 11 11 11 11 11 11 11 10 10 10 9 11 11 9 9 9 9 9 8 7 7 8 9 9 9 10 10 9 10 10 10 10 10 10 10 10 10 10 10 10 10 11 11 11 11 11 11 11 11 11 11 11 11 11 11 11 13 13 13 13 13 13 13 13 13 12 12 12 12 12 12 12 13 14 14 15 16 16 17 18 19 20 21 21 22 23 23 23 23 24 24 24 24 24 26 24 24 24 23 23 23 23 23 23 23 22 22 22 22 22 22 22 22 22 22 22 22 22 22 22 22 22 23 -9999 
11 11 11 11 12 12 12 12 12 12 12 12 12 12 12 12 12 12 12 12 12 12 12 11 11 11 11 11 11 11 10 11 11 11 11 11 10 11 11 11 11 11 11 11 11 11 11 11 11 11 11 11 11 11 11 11 11 11 10 10 10 10 10 10 10 10 10 10 10 10 10 10 10 10 10 10 10 10 11 11 11 11 11 11 11 11 11 11 11 13 13 13 12 12 12 12 12 12 12 12 12 12 12 12 12 12 14 14 15 15 16 17 18 19 20 20 21 22 23 23 24 24 25 24 23 23 23 24 23 23 24 23 23 23 22 22 22 22 22 22 22 22 22 22 22 22 22 22 22 22 22 22 22 22 22 23 -9999 
11 11 11 11 11 12 12 12 12 12 12 12 12 12 12 12 12 12 12 12 12 12 12 12 12 12 11 11 11 11 11 11 11 11 11 11 11 11 11 11 11 11 11 11 11 11 11 11 11 11 11 11 11 11 11 11 11 11 10 10 10 10 10 10 10 10 10 10 10 10 10 10 10 10 10 10 10 10 10 10 10 10 11 11 11 11 11 11 11 12 12 12 12 12 12 12 12 12 12 12 12 12 12 12 12 12 13 14 14 15 16 17 18 19 19 20 21 22 23 24 25 26 27 26 24 23 23 23 23 23 25 22 22 22 22 22 22 22 22 22 22 22 22 22 22 22 22 22 22 22 22 22 22 22 22 23 -9999 
11 11 11 11 11 11 12 12 12 12 12 12 12 12 12 12 12 12 12 12 12 12 12 12 12 12 11 11 11 11 11 11 11 11 11 11 11 11 11 11 11 11 11 11 11 11 11 11 11 11 11 11 11 11 11 11 11 11 10 10 10 10 10 10 10 10 10 10 10 10 10 10 10 10 10 10 10 10 10 10 10 10 10 10 10 10 11 11 11 12 12 12 12 12 12 12 12 12 12 12 12 12 12 12 12 12 12 13 14 15 16 17 18 18 19 20 21 22 22 24 27 28 29 27 25 23 23 23 22 22 23 22 22 22 22 22 22 22 22 22 22 22 22 22 22 22 22 22 22 22 22 22 22 22 22 22 -9999 
11 11 11 11 11 11 11 12 12 12 12 12 12 12 12 12 12 12 12 12 12 12 12 12 11 11 11 11 11 11 11 11 11 11 11 11 11 11 11 11 11 11 11 11 11 11 11 11 11 11 11 11 11 11 11 11 11 11 9 10 10 10 10 10 10 10 10 10 10 10 10 10 10 10 10 10 10 10 10 10 10 10 10 10 10 10 10 10 10 12 12 12 12 12 12 12 12 12 12 12 12 12 12 12 12 12 12 13 14 15 16 16 17 18 19 20 21 21 22 24 26 29 29 27 26 24 22 21 20 20 22 22 22 22 22 22 22 22 22 22 22 22 22 22 22 22 22 22 22 22 22 22 22 22 22 22 -9999 
11 11 11 11 11 11 11 11 12 12 12 12 12 12 12 12 12 12 12 12 12 12 12 11 11 11 11 11 11 11 11 11 11 11 11 11 11 11 11 11 11 11 11 11 11 11 11 11 11 11 11 11 11 11 11 11 11 9 9 9 9 9 9 10 10 10 10 10 10 10 10 10 10 10 10 10 10 10 10 10 10 10 10 10 10 10 10 10 10 11 12 12 12 12 12 12 12 12 12 12 12 12 12 12 12 12 12 13 14 15 15 16 17 18 19 20 20 21 22 23 25 27 27 28 26 24 23 21 19 20 22 22 22 22 22 22 22 22 22 22 22 22 22 22 22 22 22 22 22 22 22 22 22 22 22 21 -9999 
11 11 11 11 11 11 11 11 11 12 12 12 12 12 12 12 12 12 12 12 12 12 11 11 11 11 11 11 11 11 11 11 11 11 11 11 11 11 11 11 11 11 11 11 11 11 11 11 11 11 11 11 11 11 11 11 11 9 9 9 9 9 9 9 9 9 9 10 10 10 10 10 10 10 10 10 10 10 10 10 10 10 10 10 10 10 10 10 10 11 12 12 12 12 12 12 12 12 12 12 12 12 12 12 12 12 12 12 14 14 15 16 17 18 19 19 20 21 21 23 24 26 26 26 25 24 24 22 19 21 22 22 22 22 22 22 22 22 22 22 22 22 22 22 22 22 22 22 22 22 22 22 22 22 21 21 -9999 
11 11 11 11 11 11 11 11 11 11 12 12 12 12 12 12 12 12 12 12 12 12 11 11 11 11 11 11 11 11 11 11 11 11 11 11 11 11 11 11 11 11 11 11 11 11 11 11 11 11 11 11 11 11 11 11 11 9 9 9 9 9 9 9 9 9 9 9 9 9 9 10 10 10 10 10 10 10 10 10 10 10 10 10 10 10 10 10 10 11 12 12 12 12 12 12 12 12 12 12 12 12 12 11 11 11 11 12 13 14 15 16 17 18 18 19 20 21 21 22 25 25 24 23 24 24 23 22 20 22 22 22 22 22 22 22 22 22 22 22 22 22 22 22 22 22 22 22 22 21 21 21 21 21 21 21 -9999 
11 11 11 11 11 11 11 11 11 11 11 12 12 12 12 12 12 12 12 12 12 12 11 11 11 11 11 11 11 11 11 11 11 11 11 11 11 11 11 11 11 11 11 11 11 11 11 11 11 11 10 10 10 10 10 10 9 9 9 9 9 9 9 9 9 9 9 9 9 9 9 9 9 9 9 10 10 10 10 10 10 10 10 10 10 10 10 10 10 10 12 12 12 12 12 12 11 11 11 11 11 11 11 11 11 11 11 11 13 14 15 16 17 17 18 19 20 21 21 22 24 23 23 23 23 23 23 22 20 21 22 22 22 22 22 22 22 22 22 22 22 22 22 22 22 22 21 21 21 21 21 21 21 21 21 21 -9999 
11 11 11 11 11 11 11 11 11 11 11 11 12 12 12 12 12 12 12 12 12 12 11 11 11 11 11 11 11 11 11 11 11 11 11 11 11 11 11 11 11 11 11 10 10 10 10 10 10 10 10 10 10 10 10 10 9 9 9 9 9 9 9 9 9 9 9 9 9 9 9 9 9 9 9 9 9 9 9 10 10 10 10 10 10 10 10 10 10 10 12 11 11 11 11 11 11 11 11 11 11 11 11 11 11 11 11 11 13 14 15 15 16 17 18 19 20 20 21 22 23 22 22 21 21 22 22 21 21 20 22 22 22 22 22 22 22 22 22 22 22 22 21 21 21 21 21 21 21 21 21 21 21 21 21 21 -9999 
11 11 11 11 11 11 11 11 11 11 11 11 11 12 12 12 12 12 12 12 12 12 11 11 11 11 11 11 11 11 11 11 11 11 11 11 11 11 10 10 10 10 10 10 10 10 10 10 10 10 10 10 10 10 10 10 9 9 9 9 9 9 9 9 9 9 9 9 9 9 9 9 9 9 9 9 9 9 9 9 9 9 9 10 10 10 10 10 10 10 11 11 11 11 11 11 11 11 11 11 11 11 11 11 11 11 11 11 13 14 14 15 16 17 18 19 19 20 21 22 23 22 22 22 21 21 20 20 20 20 22 22 22 22 22 22 22 22 21 21 21 21 21 21 21 21 21 21 21 21 21 21 21 21 21 21 -9999 
11 11 11 11 11 11 11 11 11 11 11 11 11 11 12 12 12 12 12 12 12 12 11 11 11 11 11 11 11 11 11 11 11 11 11 11 11 11 10 10 10 10 10 10 10 10 10 10 10 10 10 10 10 10 10 10 9 9 9 9 9 9 9 9 9 9 9 9 9 9 9 9 9 9 9 9 9 9 9 9 9 9 9 9 9 9 9 10 10 10 11 11 11 11 11 11 11 11 11 11 11 11 11 11 11 11 11 11 13 13 14 15 16 17 18 18 19 20 21 22 23 22 22 22 22 22 20 20 20 19 22 22 22 22 21 21 21 21 21 21 21 21 21 21 21 21 21 21 21 21 21 21 21 21 21 21 -9999 
11 11 11 11 11 11 11 11 11 11 11 11 11 11 11 11 11 11 11 11 11 11 11 11 11 11 11 11 11 10 10 10 10 10 10 10 10 10 10 10 10 10 10 10 10 10 10 10 10 10 10 10 10 10 10 9 9 9 9 9 9 9 9 9 9 9 9 9 9 9 9 9 9 9 9 9 9 9 9 9 9 9 9 9 9 9 9 9 9 10 10 10 10 10 10 10 10 10 10 10 10 10 10 11 11 11 11 11 12 13 14 14 15 16 17 17 18 19 20 20 21 21 21 21 21 21 20 19 19 19 21 21 21 21 20 21 21 22 21 21 21 21 21 21 21 21 21 21 21 21 21 21 21 21 21 21 -9999 
10 10 10 10 10 10 10 10 10 10 10 10 11 11 11 11 11 11 11 11 11 11 11 11 10 10 10 10 10 10 10 10 10 10 10 10 10 10 10 10 9 9 9 9 9 9 10 9 9 9 9 9 9 9 9 9 9 9 9 9 9 9 9 9 9 9 9 9 8 8 8 8 8 8 8 8 8 8 8 8 8 8 8 8 8 8 9 9 9 9 9 9 9 9 9 9 9 9 9 9 9 9 10 10 10 10 10 11 12 12 13 13 14 15 15 16 16 17 18 18 19 19 19 19 19 19 19 18 18 18 19 20 20 20 20 20 20 23 21 23 22 22 22 22 22 22 22 21 21 21 21 21 21 21 21 20 -9999 
10 10 10 10 10 10 10 10 10 10 10 10 10 10 10 10 10 11 10 10 10 10 10 10 10 10 10 10 10 9 9 9 9 9 9 9 9 9 9 9 9 9 9 9 9 9 9 9 9 9 9 9 9 9 9 9 9 9 9 9 9 9 8 8 8 8 8 8 8 8 8 8 8 8 8 8 8 8 8 8 8 8 8 8 8 8 8 8 8 8 8 8 8 8 8 8 8 8 8 8 8 8 9 9 9 10 10 10 11 11 12 12 13 13 14 14 15 16 16 17 17 17 17 17 18 18 18 18 17 18 19 18 19 19 18 19 19 24 24 23 23 23 23 22 22 22 22 22 21 21 21 21 21 20 20 20 -9999 
10 10 10 9 9 10 10 10 10 10 10 10 10 10 10 10 10 10 10 10 10 10 10 10 10 10 9 9 9 9 9 9 9 9 9 9 9 9 9 9 9 9 9 9 9 9 9 9 9 9 9 9 9 9 9 9 9 9 9 9 9 9 8 8 8 8 8 8 8 8 8 8 8 8 8 8 8 8 8 8 8 8 8 8 8 8 8 8 8 8 8 8 8 8 8 8 8 8 8 8 8 8 8 9 9 9 10 10 11 11 11 12 12 13 13 13 14 15 15 16 16 16 16 16 16 17 17 17 17 17 18 18 18 18 18 18 19 24 24 24 24 23 23 23 23 22 22 22 22 21 21 21 21 20 20 20 -9999 
10 10 9 9 9 10 10 10 10 10 10 10 10 10 10 10 10 10 10 10 10 10 10 10 10 10 9 9 9 9 9 9 9 9 9 9 9 9 9 9 9 9 9 9 9 9 9 9 9 9 9 9 9 9 9 9 9 9 9 9 9 9 8 8 8 8 8 8 8 8 8 8 8 8 8 8 8 8 8 8 8 8 8 8 8 8 8 8 8 8 8 8 8 8 8 8 8 8 8 8 8 8 8 8 9 9 10 10 10 11 11 12 12 12 13 13 14 15 15 15 16 16 16 16 16 16 17 17 17 18 18 18 18 18 18 18 18 21 24 24 24 23 23 23 23 22 22 22 22 21 21 21 21 20 20 20 -9999 
10 10 9 9 9 10 10 10 10 10 10 10 10 10 10 10 10 10 10 10 10 10 10 10 10 10 9 9 9 9 9 9 9 9 9 9 9 9 9 9 9 9 9 9 9 9 9 9 9 9 9 9 9 9 9 9 9 9 9 9 9 8 8 8 8 8 9 8 8 8 8 8 8 8 8 8 8 8 8 8 8 8 8 8 8 8 8 8 8 8 8 8 8 8 8 8 8 8 8 8 8 8 8 8 9 9 9 10 10 11 11 11 12 12 13 13 13 14 15 15 15 15 16 16 16 16 16 17 17 20 18 18 18 18 18 18 18 19 24 24 24 23 23 23 23 22 22 22 22 21 21 21 21 20 20 20 -9999 
10 9 9 9 9 10 10 10 10 10 10 10 10 10 10 10 10 10 10 10 10 10 10 10 10 10 9 9 9 9 9 9 9 9 9 9 9 9 9 9 9 9 9 9 9 9 9 9 9 9 9 9 9 9 9 9 9 8 8 9 9 8 8 8 8 7 8 8 8 8 9 8 8 8 8 8 8 8 8 8 8 8 8 8 8 8 8 8 8 8 8 8 8 8 8 8 8 8 8 8 8 8 8 8 9 9 9 10 10 10 11 11 12 12 12 13 13 14 15 15 15 15 15 16 16 16 16 16 18 21 18 18 18 18 18 18 18 22 24 24 23 23 23 23 23 22 22 22 22 21 21 21 21 20 20 20 -9999 
10 9 9 9 8 10 10 10 10 10 10 10 10 10 10 10 10 10 10 10 10 10 10 10 10 10 9 9 9 9 9 9 9 9 9 9 9 9 9 9 9 9 9 9 9 9 9 9 9 9 8 8 8 8 8 8 9 8 8 8 8 9 9 8 7 7 8 8 8 8 9 8 8 8 8 8 8 8 8 8 8 8 8 8 8 8 8 8 8 8 8 8 8 8 8 8 8 8 8 8 8 8 8 8 9 9 9 9 10 10 11 11 11 12 12 13 13 14 14 15 15 15 15 15 16 16 16 16 18 22 18 18 18 18 18 18 23 26 24 24 24 23 23 23 23 22 22 22 22 21 21 21 21 20 20 20 -9999 
10 9 9 9 8 10 10 10 10 10 10 10 10 10 10 10 10 10 10 10 10 10 10 10 10 10 9 9 9 9 9 9 9 9 9 9 9 9 8 8 8 8 8 8 8 8 8 8 8 8 8 8 8 8 8 8 9 8 8 10 9 10 9 8 6 7 8 8 8 10 10 8 8 8 8 8 8 8 8 8 8 8 8 8 8 8 8 8 8 8 8 8 8 8 8 8 8 8 8 8 8 8 8 8 8 9 9 9 10 10 10 11 11 12 12 12 13 13 14 14 15 15 15 15 15 15 16 16 18 21 18 18 18 18 18 18 24 27 24 24 24 23 23 23 23 22 22 22 22 21 21 21 21 20 20 20 -9999 
9 9 9 9 8 10 10 10 10 10 10 10 10 10 10 10 10 10 10 10 10 10 10 10 10 10 9 9 9 9 9 9 9 9 9 9 9 9 8 8 8 8 8 8 8 8 8 8 8 8 8 8 8 8 8 8 8 8 9 10 9 10 8 8 6 7 8 8 8 10 10 8 8 8 8 8 8 8 8 8 8 8 8 8 8 8 8 8 8 8 8 8 8 8 8 8 8 8 8 8 8 8 8 8 9 9 9 9 9 10 10 11 11 11 12 12 13 13 14 14 14 15 15 15 15 15 15 17 20 20 19 18 18 19 19 18 24 26 24 24 24 23 23 23 23 22 22 22 22 21 21 21 21 20 20 20 -9999 
9 9 9 8 8 10 10 10 10 10 10 10 10 10 10 10 10 10 10 10 10 10 10 10 9 9 9 9 9 9 9 9 9 9 9 9 9 9 9 8 8 8 8 8 8 8 8 8 8 8 8 8 8 8 8 8 8 9 9 9 9 9 8 8 7 7 8 8 8 10 10 8 8 8 8 8 8 8 8 8 8 8 8 8 8 8 8 8 8 8 8 8 8 8 8 8 8 8 8 8 8 8 8 8 8 9 9 9 9 10 10 10 11 11 12 12 12 13 14 14 14 14 15 15 15 15 15 18 20 20 20 20 19 18 18 20 25 26 24 24 24 23 23 23 23 22 22 22 22 21 21 21 21 20 20 20 -9999 
8 8 8 9 9 10 10 10 10 10 10 10 10 10 9 9 8 5 5 6 7 8 10 9 9 9 9 9 9 9 9 9 9 9 9 9 9 9 9 8 8 8 8 8 8 8 8 8 8 8 8 8 8 8 8 8 9 9 9 9 9 9 8 8 8 8 8 8 8 10 10 8 8 8 8 8 8 8 8 8 8 8 8 8 8 8 8 8 8 8 8 8 8 8 8 8 8 8 8 8 8 9 8 8 9 9 9 9 9 9 10 10 11 11 11 12 12 13 14 14 14 14 14 14 15 15 17 18 20 20 20 20 24 23 23 23 26 26 24 24 24 23 23 23 23 22 22 22 22 21 21 21 21 20 20 20 -9999 
9 9 8 10 9 9 10 10 10 10 10 10 10 10 9 8 4 0 0 0 0 0 9 9 9 9 10 11 9 10 10 10 10 10 9 9 9 8 8 8 8 8 8 8 8 8 8 8 8 8 8 8 8 8 8 8 8 8 9 9 9 9 9 9 8 8 9 9 9 10 10 8 8 8 8 8 8 8 8 8 8 8 8 8 8 8 8 8 8 8 8 8 8 8 8 8 8 8 8 8 8 8 8 8 9 9 9 8 9 9 10 10 10 11 11 12 12 12 13 14 14 14 14 14 14 15 18 19 20 20 20 20 24 24 24 24 25 26 24 24 24 23 23 23 23 22 22 22 22 21 21 21 21 20 20 19 -9999 
9 8 8 9 9 9 10 10 10 10 10 10 10 9 8 8 5 0 0 0 0 1 7 9 10 10 9 10 11 10 10 10 10 10 9 9 9 8 8 8 8 8 8 8 8 8 8 8 8 8 8 8 8 8 8 8 8 8 8 8 8 8 8 8 9 9 9 9 9 9 9 8 8 8 8 8 8 8 8 8 8 8 8 8 8 8 8 8 8 8 8 8 8 8 8 8 8 8 8 8 9 9 9 9 9 9 9 8 9 9 9 10 10 11 11 11 12 12 13 13 13 14 14 14 14 17 18 19 19 19 19 20 24 24 24 24 24 25 24 24 24 23 23 23 23 22 22 22 22 21 21 21 21 20 20 20 -9999 
9 9 8 9 9 9 8 9 9 9 10 10 9 8 8 8 9 8 4 2 1 5 7 8 9 10 10 10 11 10 10 9 9 9 9 9 9 8 8 8 8 8 8 8 8 8 8 8 8 8 8 8 8 8 8 8 8 9 9 9 8 8 8 9 9 7 8 8 8 8 8 8 8 8 8 8 8 8 8 8 8 8 8 8 8 8 8 8 8 8 8 8 8 8 8 8 8 8 8 9 9 9 9 9 9 9 9 9 8 9 9 10 10 10 11 11 12 12 13 13 13 13 14 14 14 18 19 19 19 19 19 20 24 24 24 24 24 24 24 24 24 23 23 23 23 22 22 22 22 21 21 21 21 20 20 20 -9999 
8 8 8 9 9 9 8 9 9 9 10 9 8 8 8 8 9 10 10 10 10 5 7 9 9 10 10 10 10 10 10 10 9 9 9 8 9 8 8 8 8 8 8 8 8 8 8 8 8 8 8 8 8 8 8 8 8 9 9 8 8 8 8 8 9 5 7 8 8 8 9 9 8 8 8 8 8 8 8 8 8 8 8 8 9 9 9 8 8 8 8 8 8 8 8 9 9 9 9 9 9 9 9 9 9 9 9 10 10 10 10 9 10 10 11 11 11 12 13 13 13 13 13 14 16 18 19 19 19 19 19 19 23 23 23 23 24 24 24 24 24 25 25 24 23 22 22 22 22 21 21 21 21 20 20 20 -9999 
8 8 8 9 8 8 8 8 8 8 8 8 8 8 8 8 9 9 10 10 10 6 6 8 9 10 10 10 9 10 10 10 9 9 9 9 8 8 8 8 8 8 8 8 8 8 8 8 8 8 8 8 8 8 8 8 8 9 8 8 8 8 8 9 9 5 7 8 8 8 8 9 8 8 8 8 8 8 8 8 8 8 8 9 10 10 10 9 9 9 9 8 8 8 8 8 9 8 9 9 9 9 9 9 9 9 9 9 9 10 10 10 10 10 10 11 11 12 11 10 10 12 13 13 18 19 19 19 18 19 19 19 22 23 23 23 24 24 24 24 24 24 24 23 23 22 22 22 22 21 21 21 21 20 20 20 -9999 
9 9 9 9 9 9 9 9 9 9 8 8 8 8 8 8 7 4 8 10 10 8 8 9 10 10 10 10 9 10 10 10 9 9 9 9 9 9 8 8 8 8 8 8 8 8 8 8 8 8 8 8 8 8 8 8 8 9 8 9 9 8 9 9 9 5 7 8 8 8 9 9 8 8 8 8 8 8 8 8 8 8 8 9 10 10 10 9 9 9 9 8 8 9 9 9 9 9 8 8 8 7 7 7 7 8 9 9 9 10 10 10 10 11 10 11 11 11 11 10 10 12 13 14 18 19 19 19 19 19 19 19 21 22 23 23 23 23 24 24 24 24 23 23 23 22 22 22 22 21 21 21 21 20 20 18 -9999 
8 8 8 9 9 9 9 9 9 9 9 9 9 8 8 8 5 3 7 10 10 10 10 9 10 10 11 10 9 10 10 10 10 9 9 9 9 8 8 8 8 8 8 8 8 8 8 8 8 8 8 8 8 8 8 8 8 9 8 8 8 8 8 9 9 5 6 8 8 8 8 8 8 8 8 8 8 8 8 8 8 8 8 9 10 10 10 9 9 9 9 9 8 9 9 10 9 9 8 8 8 7 7 7 7 8 8 8 8 9 10 10 10 11 11 11 11 12 11 10 10 11 13 15 17 19 19 19 18 19 19 19 21 22 23 23 23 22 24 25 25 24 23 23 23 22 22 22 22 21 21 21 21 20 20 18 -9999 
9 9 9 10 9 9 9 9 9 9 9 9 9 9 8 8 7 4 8 10 10 10 10 10 10 13 13 12 10 10 10 10 9 9 9 9 9 8 8 8 8 8 8 8 8 8 8 8 8 8 8 8 8 8 8 8 8 8 8 8 8 8 8 8 8 5 6 8 8 9 9 8 8 8 8 8 8 8 8 8 8 8 9 9 10 10 9 9 9 9 9 9 9 9 9 9 9 8 8 8 7 7 7 8 8 8 8 8 8 8 8 8 9 10 11 11 11 10 10 10 10 11 12 14 18 19 18 18 18 19 19 19 20 22 23 23 22 22 24 25 24 23 23 23 23 22 22 22 22 21 21 21 21 20 20 19 -9999 
9 9 8 9 9 8 8 9 9 9 9 9 9 9 8 8 9 9 9 10 9 10 10 10 12 14 14 14 11 10 10 10 9 9 9 10 9 8 8 8 8 8 8 8 8 8 8 8 8 8 8 8 8 8 8 8 8 8 8 8 8 8 8 8 8 7 7 8 8 9 8 9 8 9 8 8 8 8 8 8 8 9 9 8 10 10 9 9 9 9 9 9 9 9 9 9 9 8 8 8 7 8 8 8 8 8 8 8 8 8 8 8 10 10 11 10 11 10 11 11 12 12 13 13 14 14 15 16 17 18 19 20 21 22 22 22 22 22 24 24 24 23 23 23 23 22 22 22 22 21 21 21 21 20 20 19 -9999 
8 8 8 9 9 9 8 9 9 9 9 9 9 8 8 8 9 9 9 8 9 9 9 10 11 14 15 15 13 10 10 10 9 9 9 9 10 8 8 8 8 8 8 8 8 8 8 8 8 8 8 8 8 8 8 8 8 8 9 8 8 8 8 8 8 8 8 8 8 9 8 8 8 9 8 8 8 8 8 8 8 8 9 8 10 10 9 9 9 9 9 9 9 9 9 9 9 8 8 8 8 8 8 8 8 8 8 8 8 8 9 9 10 10 11 10 10 10 11 11 12 12 13 13 14 14 15 15 16 16 17 19 21 21 22 22 23 22 23 23 24 23 23 23 23 22 22 22 22 21 21 21 21 20 20 20 -9999 
8 8 8 9 8 8 8 9 9 9 9 9 9 9 8 8 9 8 9 8 8 9 10 10 11 13 14 13 12 9 10 10 9 9 9 9 9 8 8 8 8 8 8 8 8 8 8 8 8 8 8 8 8 8 8 8 8 8 9 8 8 8 8 8 8 8 8 8 8 9 9 9 8 9 8 8 8 8 8 8 8 8 8 8 10 10 9 9 9 9 9 7 5 6 9 9 8 8 8 8 8 8 8 8 8 8 8 8 9 9 9 9 10 10 11 10 10 10 11 11 12 12 13 13 13 14 14 15 15 16 16 17 17 18 20 22 23 23 23 23 24 23 23 23 23 22 22 22 22 21 21 21 21 20 20 20 -9999 
8 9 9 9 8 8 8 9 9 9 9 9 9 8 8 8 8 9 9 8 9 9 10 10 10 10 11 10 11 10 10 9 9 9 9 9 9 8 8 8 8 8 8 8 8 8 8 8 8 8 8 8 8 8 8 8 8 8 8 8 8 8 8 8 8 8 8 8 8 9 9 9 9 9 9 8 8 8 8 8 8 8 8 9 9 9 9 9 9 9 8 6 1 1 9 8 8 8 8 8 8 8 8 8 8 8 9 9 9 9 9 9 10 10 10 11 10 10 10 11 11 12 12 13 13 14 14 15 15 16 16 17 17 18 18 19 20 21 23 23 23 24 24 23 23 22 22 22 22 21 21 21 21 20 20 21 -9999 
8 8 9 8 8 8 8 9 9 9 9 9 9 8 9 9 8 8 8 8 8 9 9 10 10 11 11 10 10 10 10 9 9 9 9 9 9 8 8 8 8 8 8 8 8 8 8 8 8 8 8 8 8 8 8 8 8 8 8 8 8 8 8 8 8 8 8 8 8 9 9 9 8 9 9 8 8 8 8 8 8 8 8 9 8 8 9 9 9 9 8 5 1 1 8 8 8 8 8 8 8 8 8 8 9 9 9 9 9 9 9 9 10 10 10 11 10 10 10 11 11 12 12 13 13 14 14 15 15 16 16 17 17 18 18 19 19 20 24 24 24 23 23 24 24 24 24 24 24 24 21 21 21 20 21 21 -9999 
9 9 9 9 9 9 9 9 9 9 9 9 9 8 8 8 8 8 9 8 9 9 10 10 10 10 10 10 10 10 10 9 9 8 8 8 8 8 8 8 8 8 8 8 8 8 8 8 8 8 8 8 8 8 8 8 8 8 8 8 8 8 8 8 8 8 8 8 8 9 10 9 8 9 9 9 8 8 8 8 8 8 8 10 9 8 8 9 9 9 9 5 1 1 8 8 8 8 8 8 8 8 9 9 9 9 9 9 9 9 9 10 10 10 10 10 10 10 10 11 11 12 12 13 13 14 14 15 15 16 16 17 17 18 18 19 19 20 24 24 25 26 27 29 27 25 24 24 24 25 25 24 21 21 21 22 -9999 
9 8 9 9 9 9 9 9 9 9 9 9 9 9 8 8 8 8 8 8 9 9 10 10 10 8 4 5 8 9 10 10 9 8 8 8 8 9 9 8 8 8 8 8 8 8 8 8 8 8 8 8 8 8 8 8 8 8 8 8 8 8 8 8 8 8 8 8 8 10 10 8 8 8 9 9 9 8 8 8 8 8 8 9 9 8 9 9 9 9 8 6 1 1 8 8 8 8 8 8 8 9 9 9 9 9 9 9 9 9 9 9 10 10 10 10 10 10 10 11 11 12 12 13 13 14 14 15 15 16 16 17 17 18 18 19 19 21 24 25 26 27 29 31 30 29 28 26 26 24 22 22 21 21 21 22 -9999 
8 8 9 9 9 9 9 9 9 9 9 9 9 9 8 8 8 8 8 8 9 9 9 9 9 6 5 6 8 9 10 10 9 9 8 8 8 8 8 8 8 8 8 8 8 8 8 8 8 8 8 8 8 8 8 8 8 8 8 8 8 8 8 8 8 8 8 8 8 9 9 8 8 8 9 9 8 8 8 8 8 8 8 9 9 8 9 9 9 9 8 6 3 4 7 8 8 8 8 8 9 9 9 9 9 9 9 9 9 9 9 9 10 10 10 10 10 10 10 11 11 12 12 13 13 14 14 15 15 16 16 17 17 17 18 18 19 20 22 23 23 25 26 27 27 27 26 25 24 23 22 22 21 21 21 21 -9999 
7 8 9 8 8 8 8 8 8 8 8 9 9 8 8 8 8 8 8 8 9 9 9 9 8 5 3 6 9 9 10 10 10 9 9 9 9 8 8 7 7 7 7 8 8 8 8 8 8 8 8 8 8 8 8 8 8 8 8 8 8 8 8 8 8 8 8 8 8 8 8 8 8 8 8 8 8 8 8 8 8 8 8 8 8 8 8 8 8 8 8 6 6 6 7 7 8 8 8 8 8 8 8 8 9 9 9 9 8 9 9 9 9 9 9 9 9 10 10 11 11 12 12 13 14 14 14 15 15 15 16 16 16 17 17 17 18 19 20 20 21 22 23 24 24 24 23 23 23 22 22 22 21 21 21 21 -9999 
6 8 9 8 8 8 8 8 8 8 8 8 9 8 8 8 8 8 8 8 9 9 9 9 9 1 2 6 9 10 10 10 10 10 9 9 9 8 8 7 7 7 7 8 8 7 8 8 8 8 8 8 8 8 8 8 8 8 8 8 8 8 8 8 8 8 8 8 8 8 8 8 8 8 8 8 8 8 8 8 8 8 8 8 8 8 8 8 8 8 8 8 7 7 8 8 8 8 8 8 8 8 8 8 8 9 8 8 8 8 9 9 9 9 9 9 9 10 10 11 11 11 12 14 14 15 15 15 15 15 15 16 16 16 16 16 17 18 18 18 18 19 20 21 21 21 21 21 21 21 21 21 21 21 21 21 -9999 
6 8 8 8 8 8 8 8 8 8 8 8 9 8 8 8 8 8 8 8 9 9 9 9 9 1 1 2 9 10 11 10 9 9 9 9 9 8 8 7 7 6 6 7 7 8 8 7 8 8 8 8 8 8 8 8 8 8 8 8 8 8 8 8 8 8 8 8 8 8 8 8 8 8 8 8 8 8 8 8 8 8 8 8 8 8 8 8 8 8 8 8 8 8 8 8 8 8 8 8 8 8 8 8 8 8 8 8 8 8 9 9 9 9 9 9 9 9 9 11 11 11 12 14 14 15 15 15 15 15 15 16 16 16 16 16 16 17 17 17 17 17 19 20 20 20 20 20 21 21 21 21 21 21 21 21 -9999 
6 8 8 8 8 8 8 8 8 9 8 8 9 9 8 8 9 9 8 8 8 9 9 9 9 1 2 2 7 10 11 9 9 10 9 9 9 8 8 8 7 7 7 7 8 8 7 7 7 8 8 8 8 8 8 8 8 8 8 8 8 8 8 8 8 8 8 9 9 9 9 8 8 8 8 8 8 8 8 8 8 8 8 8 8 8 8 8 8 8 8 8 8 8 8 8 8 8 8 8 8 8 8 8 8 9 8 8 8 8 9 9 9 10 10 9 9 9 9 10 10 11 11 14 14 14 14 15 15 15 15 15 16 16 16 16 16 16 17 17 17 19 20 20 20 20 20 20 21 21 21 21 21 21 21 21 -9999 
6 8 9 8 8 8 8 8 9 9 9 8 9 9 8 8 8 9 8 9 9 9 9 10 9 1 2 2 3 9 10 9 9 9 9 9 9 8 8 8 8 7 7 8 8 8 7 5 4 6 7 7 7 7 7 8 8 8 8 8 8 8 8 8 8 8 8 8 9 9 9 9 9 10 11 12 11 10 10 9 8 8 9 10 11 12 11 9 9 9 8 8 8 8 8 8 8 8 8 8 8 8 8 8 8 8 8 8 8 8 9 9 9 9 9 9 9 9 9 10 10 11 11 14 14 14 14 14 15 15 15 15 15 15 16 16 16 16 16 17 18 19 19 20 20 20 20 21 21 21 21 21 21 21 21 21 -9999 
8 8 9 8 8 8 8 8 8 8 8 9 9 9 8 8 8 8 8 9 9 9 10 10 9 -1 0 -3 0 6 10 10 9 9 9 9 8 8 8 8 8 7 7 8 8 8 8 6 3 2 4 5 4 5 6 7 8 8 8 8 8 8 8 8 8 8 8 8 9 9 9 9 9 11 13 15 15 14 11 10 9 9 10 10 11 13 13 11 11 9 8 9 9 9 8 8 8 8 8 8 8 8 8 8 8 8 8 8 8 8 9 9 9 9 9 9 9 9 9 9 9 11 12 13 14 14 14 14 14 15 15 15 15 15 15 16 16 16 16 16 18 19 20 21 20 20 21 21 21 21 21 21 21 21 21 21 -9999 
8 8 8 8 8 9 8 8 8 8 8 9 8 8 8 8 8 8 9 9 9 10 10 10 8 -4 -3 -3 0 3 8 9 9 10 11 9 9 8 8 9 9 8 8 9 9 8 8 8 6 5 5 3 3 3 4 6 8 8 8 8 8 8 8 8 8 9 8 9 9 9 9 9 10 12 14 15 16 18 16 12 9 9 9 10 11 13 13 13 11 8 8 9 9 8 8 8 8 8 8 8 8 8 8 8 8 8 8 8 8 9 9 9 9 9 9 9 8 8 9 9 9 10 11 12 13 14 14 14 14 14 15 15 15 15 15 15 16 16 16 16 16 19 20 21 21 20 21 21 21 21 21 21 21 21 21 21 -9999 
8 8 8 8 8 8 8 8 8 8 8 8 8 9 8 8 8 5 6 6 9 10 10 10 7 -3 -3 -3 -1 1 7 9 9 9 13 12 9 8 8 8 8 9 9 9 8 8 8 8 8 8 8 8 6 7 8 8 8 8 8 8 8 8 8 8 9 8 8 9 9 9 9 9 11 12 14 15 16 17 18 16 12 10 11 10 11 13 13 12 12 8 8 9 9 8 8 8 8 8 8 8 8 8 8 8 8 8 8 8 8 9 9 8 9 9 8 8 8 8 9 9 9 10 10 11 12 12 13 14 14 14 14 15 15 15 15 15 15 16 16 16 16 19 19 21 21 21 21 21 21 21 21 21 21 21 21 21 -9999 
9 8 8 8 8 8 8 8 8 8 8 8 8 8 8 8 6 -5 -5 -5 6 9 10 10 4 -3 -3 -3 -1 0 6 9 9 11 12 11 9 8 8 8 8 9 9 9 8 8 8 8 8 8 8 8 8 8 8 8 8 8 9 8 8 9 9 9 9 8 9 9 9 9 9 9 11 11 13 15 15 15 16 17 15 13 11 10 11 13 13 12 15 13 8 9 9 8 8 8 8 8 8 8 8 8 8 8 8 8 8 8 8 8 8 8 8 8 8 8 8 8 8 8 9 10 10 11 12 12 13 14 14 14 14 14 15 15 15 15 15 15 16 16 16 20 20 21 21 21 20 21 21 21 21 21 21 21 21 21 -9999 
9 9 9 8 8 8 8 8 8 8 8 8 8 8 8 8 4 -6 -5 -5 2 9 8 9 4 -3 -4 -3 -1 0 4 9 9 10 11 10 9 8 8 8 8 9 8 8 8 8 8 8 8 8 8 8 9 8 7 8 8 8 8 8 8 8 9 9 9 9 9 10 9 9 9 11 12 10 11 13 13 13 13 15 15 14 12 11 12 13 12 12 15 15 8 9 8 8 8 8 8 8 8 8 8 8 8 8 8 8 8 8 8 8 9 9 9 9 9 9 8 8 8 8 9 10 10 11 12 12 12 13 14 14 14 14 14 14 15 15 15 15 15 16 17 19 21 21 21 20 20 20 21 21 21 21 21 21 21 21 -9999 
8 8 8 8 8 8 8 8 8 8 8 8 8 8 8 8 4 -7 -7 -6 -1 9 8 7 3 -3 -3 -3 -2 0 6 9 9 9 9 9 9 8 8 8 8 8 8 8 9 8 8 8 8 8 8 8 8 7 7 8 8 8 8 9 9 8 8 9 9 9 9 10 10 9 9 12 13 11 10 12 12 11 11 12 14 14 12 11 12 14 12 11 13 12 8 9 8 8 8 8 8 8 8 8 8 8 8 8 8 8 8 8 8 8 8 8 8 8 8 9 8 8 8 8 9 10 10 11 12 12 12 13 13 14 14 14 14 14 14 15 15 15 15 15 18 19 19 21 20 20 20 20 21 21 21 21 21 21 21 21 -9999 
8 9 9 9 8 8 8 8 8 8 8 8 8 8 8 8 7 0 -5 -7 -3 9 5 0 -3 -3 -3 -3 0 2 7 9 9 10 10 9 8 8 8 2 1 4 2 2 2 0 2 8 8 8 8 8 8 7 7 8 8 8 8 8 8 8 8 9 9 9 10 9 9 9 10 12 13 10 10 11 11 10 10 12 13 13 11 10 13 14 13 11 11 9 8 8 8 8 8 8 8 8 8 8 8 8 8 8 8 8 8 8 8 8 8 8 8 8 8 8 8 8 8 8 9 9 10 10 11 11 12 13 13 13 13 13 13 12 12 12 12 13 15 16 18 19 19 21 21 20 20 21 21 21 21 21 21 21 21 21 -9999 
9 9 8 8 8 8 8 8 8 8 8 8 8 8 8 8 8 9 7 4 4 8 2 0 0 -4 -4 -3 0 3 8 9 9 9 9 9 9 8 8 1 -3 -2 -2 -1 -1 -2 1 8 8 8 8 8 8 8 7 8 8 8 8 8 8 8 8 9 9 9 9 9 9 10 11 12 11 10 10 11 11 12 11 12 13 11 10 10 13 14 13 11 10 8 8 8 8 8 8 8 8 8 8 8 8 8 8 8 8 8 8 8 8 8 8 8 8 8 8 8 8 8 8 8 9 10 10 10 10 10 10 11 11 11 12 12 12 12 12 12 12 13 15 16 18 19 20 21 21 20 20 21 21 21 21 21 21 21 21 21 -9999 
9 9 8 8 6 8 9 8 8 8 8 8 8 8 8 8 8 8 8 8 8 9 4 1 0 -3 -4 -3 0 3 8 9 9 8 8 9 8 8 8 6 1 0 0 1 7 5 2 8 8 8 8 8 8 8 8 8 8 8 8 9 8 8 8 9 9 9 9 9 10 11 11 10 10 10 10 10 11 12 12 13 11 11 11 12 11 10 8 8 8 8 8 8 8 8 8 8 8 8 8 8 8 8 8 8 8 8 8 8 8 8 8 8 8 8 8 8 8 8 8 8 9 10 10 10 10 10 10 10 10 10 11 12 12 12 12 12 12 14 15 16 18 20 20 21 21 20 20 21 21 21 21 21 21 21 21 21 -9999 
9 9 8 9 6 8 8 9 8 8 8 8 8 8 8 8 8 8 9 8 8 9 8 1 -1 -4 -4 -4 0 2 9 9 9 9 9 9 8 8 8 8 8 8 8 8 8 8 8 8 8 8 8 8 7 8 8 8 8 8 8 9 8 8 8 9 9 9 9 9 10 10 10 9 9 9 9 10 11 11 12 11 10 10 11 10 8 8 8 8 9 9 8 8 8 8 8 8 8 8 8 8 8 8 8 8 8 8 8 8 8 8 8 8 8 8 8 8 8 8 8 8 10 11 10 10 10 10 10 10 10 10 11 12 12 12 12 12 12 13 16 16 18 20 20 21 21 20 20 20 22 22 22 22 22 21 20 20 -9999 
8 9 7 6 5 8 8 8 9 9 8 8 8 8 8 8 8 8 9 9 8 9 8 1 -2 -3 -4 -3 0 2 8 8 8 8 8 8 8 8 8 8 8 8 9 9 9 8 8 8 8 8 8 8 8 8 8 8 8 8 8 8 8 8 8 8 8 8 8 9 9 9 9 9 9 9 9 9 9 10 11 10 9 8 9 7 9 9 8 8 9 9 8 8 8 8 8 8 8 8 8 8 8 8 8 8 8 8 8 8 8 8 8 8 8 8 8 8 8 8 8 8 11 12 10 10 10 10 10 10 10 10 12 12 12 12 12 12 12 13 16 16 17 19 19 21 21 20 20 20 22 22 21 20 20 20 20 20 -9999 
8 8 7 7 6 8 8 8 8 8 8 8 8 8 8 8 8 8 9 9 8 8 9 3 -3 -4 -3 -3 -1 4 8 8 8 8 8 8 8 8 8 8 8 8 8 8 8 8 8 8 8 8 8 8 8 8 8 8 8 8 8 8 9 8 8 8 8 8 8 8 8 8 8 8 8 8 8 8 8 8 9 9 9 8 9 8 9 9 8 8 8 8 8 8 8 8 8 8 8 8 8 8 8 8 8 8 8 8 8 8 7 8 8 8 8 8 8 8 8 8 8 8 12 13 12 10 10 10 10 10 10 10 12 12 12 12 12 12 12 12 14 15 17 19 19 21 21 19 20 20 22 20 20 20 20 20 20 20 -9999 
8 8 7 6 7 8 8 9 9 9 9 9 9 9 8 8 8 8 9 10 9 9 9 6 -3 -1 -1 -2 1 7 8 8 8 8 8 8 8 8 8 8 8 8 8 9 9 9 8 8 8 8 8 8 8 8 8 8 8 8 8 8 8 8 8 8 8 8 8 8 8 8 8 8 8 8 8 8 8 8 8 8 8 8 8 8 8 9 8 8 8 8 8 8 8 9 8 8 8 8 8 8 8 8 8 8 8 8 8 8 7 8 8 8 8 8 8 8 8 8 8 8 13 13 10 9 10 10 10 10 10 10 12 12 12 12 12 12 12 12 13 15 17 18 19 20 19 19 20 20 22 21 20 20 20 20 20 20 -9999 
8 8 8 8 8 8 8 8 8 8 8 8 8 8 8 8 8 8 8 10 10 10 10 9 -1 2 2 -2 1 8 8 8 8 8 8 8 8 8 8 8 8 8 8 8 8 8 8 8 8 8 8 8 8 8 8 8 8 8 8 8 8 8 8 8 8 8 8 8 8 8 8 8 8 8 8 8 8 8 8 8 8 8 8 8 8 8 8 8 8 8 8 8 9 8 8 8 8 8 8 8 8 8 8 8 8 8 8 7 8 8 8 8 8 8 8 8 8 8 8 9 12 12 9 9 9 10 10 10 10 10 12 12 12 12 11 11 12 12 12 15 16 17 18 18 18 17 17 17 19 20 20 20 20 20 19 18 -9999 
8 8 8 8 8 8 8 8 8 8 8 9 8 8 8 8 8 8 8 11 11 9 9 9 -2 1 2 -3 0 8 8 8 8 8 8 8 8 8 8 8 8 8 8 8 8 8 8 8 8 8 8 8 8 8 8 8 8 8 8 8 8 8 8 8 8 8 8 8 8 8 8 8 9 8 8 8 8 8 8 8 8 8 8 8 8 8 8 8 8 8 8 8 8 8 8 8 8 8 8 8 8 8 8 8 8 8 8 8 8 8 8 8 8 8 8 9 8 9 9 9 9 9 9 9 8 10 10 10 10 10 12 12 12 11 11 11 12 12 12 12 15 16 16 16 16 15 15 15 16 20 20 20 20 18 18 18 -9999 
8 8 8 8 8 8 8 8 8 8 9 9 9 9 8 8 8 8 10 10 9 9 9 9 -2 1 2 -3 2 8 8 8 8 8 8 8 8 8 8 8 8 8 8 8 8 8 8 8 8 8 8 8 8 8 8 8 8 8 8 8 8 8 8 8 8 8 8 8 8 8 8 8 8 8 8 8 8 8 8 8 8 8 8 8 8 8 8 8 8 8 8 8 8 8 8 8 8 8 8 8 8 8 9 8 8 8 8 8 8 8 8 8 8 8 8 9 9 9 9 9 9 9 9 9 8 8 10 10 10 10 12 11 11 11 11 11 12 12 12 12 13 15 16 16 16 15 15 15 20 20 20 20 20 19 18 17 -9999 
8 8 8 8 8 8 8 8 8 8 9 9 9 8 8 8 8 8 8 9 9 8 8 8 -1 -2 -2 -3 6 9 8 8 8 8 8 8 8 8 8 8 8 8 8 8 8 8 8 8 8 8 8 8 8 8 8 8 7 7 8 8 8 8 8 8 8 8 8 8 8 8 8 8 8 8 8 8 8 8 8 8 8 8 8 8 9 9 9 8 8 9 8 8 9 8 8 8 8 8 8 8 8 8 8 8 8 8 8 8 8 8 8 8 8 8 8 9 9 8 8 10 10 9 9 9 9 8 9 10 10 10 11 11 11 11 11 11 12 12 12 12 12 12 13 15 16 15 15 15 20 20 20 20 22 24 21 19 -9999 
8 8 8 8 8 8 8 8 8 9 9 9 9 8 8 8 8 8 8 8 8 8 8 8 -2 -3 -3 -2 8 7 8 8 9 9 8 8 8 8 8 8 8 8 8 8 8 8 8 8 8 8 8 7 7 7 8 8 7 7 7 7 7 8 8 8 8 8 8 8 8 8 8 8 8 8 8 8 8 8 8 8 8 8 8 9 8 8 8 9 8 8 8 8 8 8 8 8 8 8 8 8 6 5 6 7 8 8 8 8 8 8 8 8 8 8 8 8 8 8 8 9 10 9 9 9 9 8 10 10 10 10 11 11 11 11 11 12 12 12 12 12 12 12 12 13 15 17 18 19 19 20 22 26 27 26 25 25 -9999 
8 8 8 8 8 8 8 8 8 9 8 9 9 8 8 8 8 8 8 8 8 8 9 8 -2 -4 -3 0 8 8 8 7 6 7 7 8 8 8 8 9 8 8 8 8 8 8 8 8 8 8 8 7 8 8 8 8 8 7 7 5 7 7 5 5 7 8 8 8 8 8 8 8 8 8 8 8 8 8 8 8 8 8 8 8 8 8 8 9 8 8 8 8 8 8 8 8 8 8 8 8 5 3 4 7 8 8 8 8 8 8 8 8 8 8 8 10 9 9 9 9 9 9 8 8 8 8 8 9 10 10 11 11 11 12 12 12 12 12 12 12 12 12 11 12 14 16 17 20 18 20 24 27 28 28 25 26 -9999 
8 8 8 8 8 8 8 8 8 8 8 8 8 8 8 8 8 8 8 8 8 8 8 8 -3 -4 -3 1 7 5 3 1 1 4 8 8 8 8 8 8 9 8 8 8 8 8 8 8 8 8 9 9 9 8 8 8 9 9 7 7 7 7 5 5 6 7 8 8 8 7 8 7 8 8 8 8 8 8 8 8 8 8 8 8 8 8 8 8 8 8 8 8 8 8 8 8 8 8 8 7 4 5 5 7 8 8 8 8 8 8 8 8 8 8 8 9 9 9 9 9 9 8 8 8 8 8 8 9 9 9 10 10 11 12 12 12 12 12 12 12 12 12 13 13 14 14 15 16 18 20 24 26 27 26 23 23 -9999 
8 8 8 8 8 8 8 8 8 8 8 8 8 8 8 8 8 8 8 8 8 8 8 6 -2 -3 -3 2 8 5 2 2 3 7 8 8 8 8 8 8 9 9 9 9 8 8 8 8 8 8 9 9 9 8 8 8 9 9 8 7 7 7 5 5 6 7 7 8 8 8 7 7 8 8 8 8 8 8 8 8 8 8 8 8 8 8 8 8 8 8 8 8 8 8 8 8 8 8 8 7 5 6 7 8 8 8 8 8 8 8 8 8 8 8 8 9 9 9 9 9 9 8 8 8 8 8 8 9 9 9 9 10 10 11 11 11 11 11 11 11 11 11 12 12 13 13 14 15 16 18 21 22 23 22 21 20 -9999 
8 8 8 8 8 8 8 8 8 8 8 8 8 8 8 8 8 8 8 8 8 8 6 4 -2 -3 -2 2 5 6 5 5 5 7 8 8 8 8 8 8 8 9 8 9 8 8 8 8 8 8 8 9 8 8 8 8 8 8 8 8 7 7 6 6 7 7 7 8 8 8 8 8 8 8 8 8 8 8 8 8 8 8 8 8 8 8 8 8 8 8 8 8 8 8 8 8 8 8 8 7 6 7 7 8 8 8 8 8 8 8 8 8 8 8 8 8 8 9 8 8 8 8 8 8 8 8 8 8 8 9 9 9 9 10 10 10 11 11 11 10 11 11 11 11 12 12 12 13 14 16 18 18 19 18 18 17 -9999 
8 8 8 8 8 8 8 8 8 8 8 8 8 8 8 8 8 8 8 8 8 8 7 3 -2 -4 -4 1 6 6 7 6 7 8 8 8 8 8 8 8 8 8 8 8 8 8 8 8 8 8 8 8 8 8 7 8 8 8 8 8 8 8 7 7 7 8 8 8 8 8 8 8 8 8 8 8 8 8 8 8 8 8 8 8 8 8 8 8 8 8 8 8 8 8 8 8 8 8 8 8 7 7 8 8 8 8 8 8 8 8 8 8 8 8 8 8 8 8 8 8 8 7 7 7 8 8 8 8 8 8 8 9 9 9 9 10 10 10 10 10 10 10 10 10 10 11 11 11 12 14 15 14 14 14 13 14 -9999 
8 8 8 8 8 8 8 8 8 8 8 8 8 8 8 8 8 8 8 8 8 8 7 2 -4 -5 -6 0 6 8 8 8 8 8 8 8 8 8 8 8 8 8 8 8 8 8 8 8 8 8 8 8 8 8 7 8 8 8 8 8 8 8 8 8 8 8 8 8 8 8 8 8 8 8 8 8 8 8 8 8 8 8 8 8 8 8 8 8 8 8 8 8 8 8 8 8 8 8 8 8 8 8 8 8 8 8 8 8 8 8 8 8 8 8 8 8 8 8 8 8 8 7 7 7 8 8 8 8 8 8 8 8 8 8 8 9 9 9 9 9 9 9 9 9 9 9 10 10 10 12 13 10 11 10 10 11 -9999 
8 8 8 8 8 8 8 8 8 8 8 8 8 8 8 8 8 8 8 8 8 7 3 1 -4 -6 -5 -3 3 8 8 8 8 8 8 8 8 8 8 8 8 8 8 8 8 8 8 8 8 8 8 8 7 7 8 8 8 8 8 8 8 8 8 8 8 8 8 8 8 8 8 8 8 8 8 8 8 8 8 8 8 8 8 8 8 8 8 8 8 8 8 8 8 8 8 8 8 8 8 8 8 8 8 8 8 8 8 8 8 8 8 8 8 8 8 8 8 8 8 8 8 7 7 7 8 8 8 8 8 8 8 8 8 8 8 8 9 9 9 9 9 9 9 9 9 9 10 10 10 12 12 10 11 11 11 10 -9999 
8 8 8 8 8 8 8 8 8 8 8 8 8 8 8 8 8 8 8 8 8 8 6 3 -3 -6 -4 -3 3 8 8 8 8 8 8 8 8 8 8 8 8 8 8 8 8 8 8 8 8 8 8 7 7 8 8 8 8 8 8 8 8 8 8 8 8 8 8 8 8 8 8 8 8 8 8 8 8 8 8 8 8 8 8 8 8 8 8 8 8 8 8 8 8 8 8 8 8 8 8 8 8 8 8 8 8 8 8 8 8 8 8 8 8 8 8 8 8 8 8 8 8 7 7 7 7 7 7 8 8 8 8 8 8 8 8 8 9 9 9 9 9 9 9 9 9 9 10 10 11 10 11 10 10 10 10 10 -9999 
8 8 8 8 8 8 8 8 9 8 8 8 8 8 8 8 8 8 8 8 8 8 8 8 4 3 2 0 5 8 8 8 8 8 8 8 8 8 8 8 8 8 8 8 8 8 8 8 8 8 7 8 8 8 8 8 8 8 8 8 8 8 8 8 8 8 8 8 8 8 8 8 8 8 8 8 8 8 8 8 8 8 8 8 8 8 8 8 8 8 8 8 8 8 8 8 8 8 8 8 8 8 8 8 8 8 8 8 8 8 8 8 8 8 8 8 8 8 8 8 8 7 7 7 7 7 8 8 8 8 8 8 8 8 8 8 8 9 9 9 9 9 9 9 9 9 9 10 11 12 11 10 10 10 10 10 -9999 
8 8 8 8 8 8 8 8 8 8 8 6 6 6 7 8 8 7 5 6 7 7 7 8 6 3 3 4 8 8 8 8 8 8 8 8 8 8 8 8 8 8 8 8 8 8 8 8 7 7 8 8 8 8 8 8 8 8 8 8 8 8 8 8 8 8 8 8 8 8 8 8 8 8 8 8 8 8 8 8 8 8 8 8 8 8 8 8 8 8 8 8 8 8 8 8 8 8 8 8 8 8 8 8 8 8 8 8 8 8 8 8 8 8 8 8 8 8 8 8 8 7 7 7 7 7 7 7 8 8 8 8 8 8 8 8 8 8 9 9 9 9 9 9 9 9 9 10 11 12 12 10 10 10 10 10 -9999 
8 8 8 8 8 8 8 8 8 8 8 8 8 8 8 8 9 8 9 7 7 7 6 6 4 3 3 3 3 4 8 8 8 8 8 8 8 8 8 8 8 8 8 8 8 8 7 7 8 8 8 8 8 8 8 8 8 8 8 8 8 8 8 8 8 8 8 8 8 8 8 8 8 8 7 3 7 8 8 8 8 8 8 8 8 8 8 8 8 8 8 8 8 8 8 8 8 8 8 8 8 8 8 8 8 8 8 8 8 8 8 8 8 8 8 8 8 8 8 8 8 7 7 7 7 7 7 7 8 8 8 8 8 8 8 8 8 8 8 9 9 9 9 9 9 9 9 10 10 12 10 10 10 10 10 10 -9999 
8 8 8 8 8 8 8 8 8 8 8 8 8 8 8 8 8 8 8 8 8 8 9 9 8 3 3 4 3 4 6 8 8 8 9 8 9 8 8 8 8 8 8 8 8 7 7 8 8 8 8 8 8 8 8 8 8 8 8 8 8 8 8 8 8 8 8 8 8 8 8 8 8 8 6 2 7 8 8 8 2 6 8 8 8 8 8 8 8 8 8 8 8 8 8 8 8 8 8 8 8 8 8 8 8 8 8 8 8 8 8 8 8 8 8 8 8 8 8 8 8 7 7 7 7 7 7 7 8 8 8 8 8 8 8 8 8 8 8 8 9 9 9 9 9 9 9 9 9 9 10 10 9 9 9 9 -9999 
7 7 7 7 7 7 7 7 7 7 8 8 8 8 8 8 8 8 8 8 8 8 8 8 8 8 8 8 8 8 8 8 8 8 8 8 8 8 8 8 8 8 8 8 8 7 8 8 8 8 8 8 8 8 8 8 8 8 8 8 8 8 8 8 8 8 8 8 8 8 8 8 8 8 7 1 8 8 8 8 2 4 8 8 8 8 8 8 8 8 8 8 8 8 8 8 8 8 8 8 8 8 8 8 8 8 8 8 8 8 8 8 8 8 8 8 8 8 8 8 8 7 7 7 7 7 7 7 8 8 8 8 8 8 8 8 8 8 8 8 9 9 9 9 9 9 9 9 9 9 9 9 9 9 9 9 -9999 
7 7 7 7 7 7 7 7 7 7 7 7 7 7 7 7 7 7 7 7 7 7 7 7 7 7 7 7 7 7 7 7 7 8 8 8 8 8 8 8 8 8 8 8 8 7 8 8 8 8 8 8 8 8 8 8 8 8 8 8 8 8 8 8 8 8 8 8 8 8 8 8 8 8 7 2 3 7 7 7 2 3 8 8 8 8 8 8 8 8 8 8 8 8 8 8 8 8 8 8 8 8 8 8 8 8 8 8 8 8 8 8 8 8 8 8 8 8 8 8 8 8 7 7 7 7 7 7 8 8 8 8 8 8 8 8 8 8 8 8 8 9 9 9 9 9 9 9 9 9 9 9 9 9 9 9 -9999 
7 7 7 7 7 7 7 7 7 7 7 7 7 7 7 7 7 7 7 7 7 7 7 7 7 7 7 7 7 7 7 7 7 7 7 7 7 7 7 8 8 8 8 8 8 7 8 8 8 8 8 8 8 8 8 8 8 8 8 8 8 8 8 8 8 8 8 8 8 8 8 8 8 8 8 3 2 2 2 2 2 4 8 8 8 8 8 8 8 8 8 8 8 8 8 8 10 8 8 8 8 8 8 8 8 8 8 8 8 8 8 8 8 8 8 8 8 8 8 8 8 8 7 7 7 7 7 7 8 8 8 8 8 8 8 8 8 8 8 8 8 8 9 9 9 9 9 9 9 9 9 9 9 9 9 -9999 -9999 
7 7 7 7 7 7 7 7 7 7 7 7 7 7 7 7 7 7 7 7 7 7 7 7 7 7 7 7 7 7 7 7 7 7 7 7 7 7 7 7 7 7 7 7 7 7 8 8 8 8 8 8 8 8 8 8 8 8 8 8 8 8 8 8 8 8 8 8 8 8 8 8 8 8 8 8 8 7 6 5 5 8 8 8 8 8 8 8 8 8 8 8 9 8 8 8 8 8 8 8 8 8 8 8 8 8 8 8 8 8 8 8 8 8 8 8 8 8 8 8 8 8 8 7 7 7 7 8 8 8 8 8 8 8 8 8 8 8 8 8 8 8 8 9 9 9 9 9 9 9 9 9 9 9 9 -9999 -9999 
7 7 7 7 7 7 7 7 7 7 7 7 7 8 8 8 8 8 8 8 8 8 8 8 8 8 7 7 7 7 7 7 7 7 7 7 7 7 7 7 7 7 7 7 7 7 7 7 7 7 7 8 8 8 8 8 8 8 8 8 8 8 8 8 8 8 8 8 8 8 8 8 8 8 8 8 8 8 8 8 8 8 8 8 8 8 8 8 8 8 8 8 10 10 8 8 8 9 8 9 9 9 9 8 8 8 8 8 8 8 8 8 8 8 8 8 8 8 8 8 8 8 8 8 7 7 7 8 8 8 8 8 8 8 8 8 8 8 8 8 8 8 8 8 9 9 9 9 9 9 8 8 8 8 8 -9999 -9999 
8 8 8 8 8 8 8 8 8 7 7 7 7 8 8 8 8 8 8 8 8 8 8 8 8 8 8 8 8 8 8 8 8 7 7 7 7 7 7 7 7 7 7 7 7 7 7 7 7 7 7 7 7 7 7 7 7 7 7 7 8 8 8 8 8 8 8 8 8 8 8 8 8 8 8 8 8 8 8 8 8 8 8 8 8 8 8 8 8 8 8 8 8 8 8 8 8 8 8 8 8 9 9 8 8 8 8 8 8 8 8 8 8 8 8 8 8 8 8 8 8 8 8 8 8 8 7 8 8 8 8 8 8 8 8 8 8 8 8 8 8 8 8 8 9 9 9 9 9 9 8 8 8 8 8 -9999 -9999 
8 8 8 8 8 8 8 8 8 7 7 7 7 8 8 8 8 8 8 8 8 8 8 8 8 8 8 8 8 8 8 8 8 8 8 8 8 8 8 8 7 7 7 7 7 7 7 7 7 7 7 7 7 7 7 7 7 7 7 7 7 7 7 7 7 7 7 7 7 7 7 8 8 8 8 8 8 8 8 8 8 8 8 8 8 8 8 8 8 8 8 8 8 8 8 8 8 8 8 8 8 8 8 8 8 8 8 8 8 8 8 8 8 8 8 8 8 8 8 8 8 8 8 8 8 8 8 8 8 8 8 8 8 8 8 8 8 8 8 8 8 8 8 8 8 9 8 8 8 8 8 8 8 8 8 -9999 -9999 
8 8 8 8 8 8 8 8 8 7 7 7 7 8 8 8 8 8 8 8 8 8 8 8 8 8 8 8 8 8 8 8 8 8 8 8 8 8 8 8 8 8 8 8 8 7 7 7 7 7 7 7 7 7 7 7 7 7 7 7 7 7 7 7 7 7 7 7 7 7 7 7 7 7 7 7 7 7 8 8 8 8 8 8 8 8 8 8 8 8 8 8 8 8 8 8 8 8 8 8 8 8 8 8 8 8 8 8 8 8 8 8 8 8 8 8 8 8 8 8 8 8 8 8 8 8 8 8 8 8 8 8 8 8 8 8 8 8 8 8 8 8 8 8 8 8 8 8 8 8 8 8 8 8 8 -9999 -9999 
8 8 8 8 8 8 8 8 8 7 7 7 7 7 7 7 8 8 8 8 8 8 8 8 8 8 8 8 8 8 8 8 8 8 8 8 8 8 8 8 8 8 8 7 7 7 7 7 7 7 7 7 7 7 7 7 7 7 7 7 7 7 7 7 7 7 7 7 7 7 7 7 7 7 7 7 7 7 7 7 7 7 7 7 8 8 8 8 8 8 8 8 8 8 8 8 8 8 8 8 8 8 8 8 8 8 8 8 8 8 8 8 8 8 8 8 8 8 8 8 8 8 8 8 8 8 8 8 8 8 8 8 8 8 8 8 8 8 8 8 8 8 8 8 8 8 8 8 8 8 8 8 8 8 8 -9999 -9999 
8 8 8 8 8 8 8 8 8 8 8 8 7 7 7 7 7 7 8 8 8 8 8 8 8 8 8 8 8 8 8 8 8 8 8 7 7 7 7 7 7 7 7 7 7 7 7 7 7 7 7 7 7 7 7 7 7 7 7 7 7 7 7 7 7 7 7 7 7 7 7 7 7 7 7 7 7 7 7 7 7 7 7 7 7 7 7 7 7 7 7 8 8 8 8 8 8 8 8 8 8 8 8 8 8 8 8 8 8 8 8 8 8 8 8 8 8 8 8 8 8 8 8 8 8 8 8 8 8 8 8 9 9 9 8 8 8 8 8 8 8 8 8 8 8 8 8 8 8 8 8 8 8 8 8 -9999 -9999 
8 8 8 8 8 8 8 8 8 8 8 8 8 8 7 7 7 7 7 8 7 7 8 7 8 8 8 7 7 7 7 7 7 7 7 7 7 7 7 7 7 7 7 7 7 7 7 7 7 7 7 7 7 7 7 7 7 7 7 7 7 7 7 7 7 7 7 7 7 7 7 7 7 7 7 7 7 7 7 7 7 7 7 7 7 7 7 7 7 7 7 7 7 7 7 7 7 8 8 8 8 8 8 8 8 8 8 8 8 8 8 8 8 8 8 8 8 8 8 8 8 8 8 8 8 8 8 8 8 8 9 9 9 9 9 8 8 8 8 8 8 8 8 8 8 8 8 8 8 8 8 8 8 8 8 -9999 -9999 
-9999 -9999 -9999 -9999 -9999 -9999 -9999 -9999 -9999 -9999 -9999 -9999 -9999 -9999 -9999 -9999 -9999 -9999 -9999 -9999 -9999 -9999 -9999 -9999 -9999 -9999 -9999 -9999 -9999 -9999 -9999 -9999 -9999 -9999 -9999 -9999 -9999 -9999 -9999 -9999 -9999 -9999 -9999 -9999 -9999 -9999 -9999 -9999 -9999 -9999 -9999 -9999 -9999 -9999 -9999 -9999 -9999 -9999 -9999 -9999 -9999 -9999 -9999 -9999 -9999 -9999 -9999 -9999 -9999 -9999 -9999 7 7 7 7 7 7 7 7 7 7 7 7 7 7 7 7 7 7 7 7 7 7 7 7 7 7 7 7 7 7 7 7 7 8 8 8 8 8 8 8 8 8 8 8 8 8 8 8 8 8 8 8 8 8 8 8 8 8 8 8 8 9 9 9 8 8 8 8 8 8 8 8 8 8 8 8 8 8 8 8 8 8 8 8 -9999 -9999 
